215.74 -204.94 -653.25
355.25 -338.51 -591.75
86.756 -40.734 -731.7
502.75 -361.8 -589.25
218.24 -189.25 -614.38
385.24 -271.26 -638.77
129.74 -117.63 -685.25
355.76 -339.91 -602.75
298.73 -167.51 -620.76
1050.2 -1013.7 -314.37
75.246 -57.501 -714.75
78.261 -49.743 -665.11
1043.5 -910.77 -392.25
988.92 -950.23 -336.25
278.09 -142.77 -650.75
362.24 -316.26 -561.3
176.25 -79.748 -627.87
363.24 -243.25 -644
244.93 -228.74 -615.76
126.27 -51.765 -727.39
169.12 -33.751 -680.25
128.68 -83.294 -638.69
384.25 -288.75 -645.13
402.75 -272.32 -576.26
234.25 -183.75 -688.07
92.747 49.277 -725.75
117.26 -38.252 -731.21
292.75 -235.25 -583.13
501.25 -361.69 -573.75
1066.8 -925.76 -357.31
290.75 -206.75 -677.33
89.241 16.758 -743.77
237.09 -224.26 -623.75
301.24 -275.76 -588.53
257.25 -198.75 -594.76
80.746 20.241 -667.64
74.981 -56.751 -669.25
260.24 -217.76 -595.48
169.75 -87.249 -627.03
323.75 -273.25 -658.92
87.411 45.252 -709.75
504.25 -355.81 -558.25
145.63 -37.769 -718.34
36.259 -26.251 -713.25
291.75 -227.25 -674.19
1048.7 -909.19 -383.71
1025.4 -1010.7 -353.75
378.25 -283.26 -560.47
33.74 -22.514 -680.75
42.008 -29.253 -689.75
397.75 -331.24 -553.68
144.39 -13.252 -704.75
182.25 -87.251 -625.09
393.25 -295.74 -554.72
365.27 -249.74 -645.98
174.25 -46.788 -648.75
1096.4 -965.25 -377.75
100.75 -55.25 -647.03
163.74 -140.04 -692.76
152.23 -127.78 -697.14
84.748 -33.25 -652.14
317.26 -276.24 -656.32
58.755 -1.2499 -661.35
122.76 -48.254 -728.67
232.75 -194.74 -681.92
107.58 -95.745 -669.75
114.63 12.745 -714.25
291.25 -256.75 -587.54
119.24 7.5488 -672.76
150.75 -93.25 -630.46
319.66 -184.25 -632.75
282.75 -151.58 -625.75
144.73 -124.14 -695.28
1062.4 -1046.7 -354.25
266.75 -216.75 -677.29
1035.7 -1021 -348.75
1010.3 -987.75 -357.74
138.76 -7.4506 -673.74
360.25 -260.25 -571.31
419.25 -274.74 -579.24
75.507 -65.757 -685.75
131.25 -47.25 -729.46
376.25 -325.75 -558.72
274.56 -265.26 -622.75
966.26 -925.7 -427.25
221.27 -209.76 -632.25
151.25 -120.76 -702.88
1090.8 -948.25 -359.42
92.751 44.537 -740.25
197.74 -172.26 -623.82
145.75 -82.753 -721.33
273.75 -168.25 -680.49
51.754 -5.2486 -668.02
345.75 -283.75 -655.74
348.76 -311.74 -567.25
134.51 -51.159 -725.47
313.74 -300.55 -629.75
89.258 -4.2509 -744.59
70.749 7.7517 -662.33
72.246 7.7515 -747.58
1045.8 -1017.9 -380.24
1037.3 -999.25 -333.05
1037.7 -915.53 -402.25
242.16 -111.74 -691.73
354.25 -326.25 -572.56
348.25 -224.48 -593.75
343.24 -213.11 -604.75
183.75 -91.75 -713.87
175.25 -72.751 -629.96
299.26 -287.43 -631.25
1070.2 -997.03 -410.24
967.75 -941.25 -377.1
1021.2 -1006.3 -343.75
73.749 -37.25 -662.7
435.25 -317.75 -545.96
418.74 -289.26 -629.2
1073.6 -1044.7 -346.25
38.154 -13.75 -674.25
1072.2 -1001.7 -399.75
120.27 14.844 -690.25
305.25 -234.25 -579.94
67.479 -12.748 -754.25
231.75 -175.75 -603.25
150.48 -33.238 -707.77
114.77 -2.2272 -659.96
1034.9 -1020.2 -349.75
128.76 2.4162 -676.74
135.25 -98.749 -638.94
105.76 -46.25 -647.44
1101.3 -964.72 -383.74
72.187 -42.755 -666.74
1075.2 -936.25 -355.13
388.26 -264.96 -578.74
224.76 -209.75 -624.25
307.76 -245.75 -578.28
995.65 -958.75 -422.25
101.24 20.242 -672.6
994.75 -964.25 -331.19
161.76 -135.68 -695.73
487.25 -361.4 -572.74
34.752 -34.741 -721.75
138.75 -82.258 -721.51
178.75 -41.684 -658.75
66.251 9.7494 -663.39
164.26 -148.12 -682.74
417.25 -312.25 -547.76
195.24 -162.76 -620.83
45.755 -4.6608 -748.25
182.75 -106.75 -621.6
96.749 -50.75 -651.76
181.25 -56.243 -706.27
438.75 -338.23 -630.72
119.25 -41.251 -647.44
206.75 -94.247 -711.25
334.25 -323.66 -611.75
99.249 -21.249 -737.62
400.25 -348.9 -623.25
86.752 53.982 -692.75
265.77 -132.24 -659.25
380.75 -247.56 -599.75
376.74 -334.26 -563.43
143.87 -12.754 -686.25
101.26 29.29 -693.75
250.89 -115.25 -672.75
1074.8 -994.3 -404.75
1077.8 -929.25 -358.43
255.76 -169.25 -688.92
335.17 -217.82 -591.34
1077.2 -926.25 -355.65
89.24 46.737 -722.75
1071.6 -1056.3 -369.75
176.24 -166.14 -662.25
288.75 -241.26 -669
184.25 -73.75 -713.45
146.73 -35.454 -715.78
247.75 -170.25 -599.88
96.541 -68.249 -657.25
987.87 -945.74 -352.25
123.24 4.4942 -672.76
290.77 -181.72 -599.2
355.25 -246.25 -578.24
121.75 -42.242 -647.26
327.79 -311.79 -588.22
117.12 17.239 -708.75
230.76 -120.24 -619.83
328.75 -193.63 -624.25
251.75 -223.75 -668.2
251.87 -234.75 -612.25
341.24 -230.25 -656.18
128.75 -31.25 -729.73
241.81 -113.75 -691.24
46.292 -23.753 -734.24
368.26 -239.77 -593.74
374.75 -340.61 -626.24
351.8 -226.25 -643.25
58.251 -23.749 -733.67
314.58 -304.25 -602.25
207.22 -193.74 -633.75
194.29 -181.24 -638.75
258.75 -204.75 -594.39
384.13 -249.75 -616.25
211.95 -198.25 -650.51
248.25 -196.26 -684.2
345.26 -317.74 -573.51
147.8 -20.265 -666.24
93.249 30.948 -683.75
278.77 -218.25 -587.72
404.76 -330.74 -551.69
358.23 -261.75 -654.23
380.24 -330.27 -559.21
487.25 -357.51 -605.24
160.25 -112.25 -628.07
1061.3 -1012.3 -395.25
79.753 40.157 -682.75
327.75 -236.25 -578.01
95.248 16.747 -670.05
474.25 -342.25 -547.65
94.754 -11.251 -739.69
98.075 24.256 -731.76
110.76 12.049 -670.74
122.75 -22.751 -731.53
338.73 -315.25 -577.75
208.25 -176.24 -685.78
1015.8 -945.76 -426.32
134.25 -42.75 -728.3
400.25 -350.38 -621.26
1050.3 -1034.5 -350.25
341.26 -328 -592.25
1022.8 -942.76 -424.88
78.306 -65.431 -705.2
186.25 -97.252 -622.48
267.75 -189.75 -684.49
358.75 -302.75 -559.95
298.97 -166.75 -652.25
303.25 -211.75 -586.03
227.9 -215.25 -627.25
172.26 -68.246 -715.08
400.74 -270.59 -578.26
63.71 8.1168 -763.76
967.43 -952.28 -392.25
375.25 -269.24 -568.55
93.891 32.251 -724.25
262.26 -237.77 -602.23
135.76 -124.29 -680.25
1068.3 -1004.5 -406.75
362.75 -299.25 -558.62
115.25 -52.752 -731.52
80.752 5.2501 -744.8
341.25 -237.26 -579.62
76.748 -14.25 -654.96
295.24 -237.75 -582.3
98.249 -21.248 -649.36
37.343 -16.25 -673.75
130.25 -102.75 -644.61
1006.5 -964.25 -341.25
355.25 -303.75 -561.4
149.77 -30.237 -714.31
279.26 -237.25 -589.3
338.25 -256.75 -571.29
317.75 -252.25 -575.23
163.74 -32.753 -664.76
333.27 -197.99 -625.75
1091 -978.74 -394.75
305.24 -204.25 -671.18
126.26 -29.718 -649.58
67.751 13.546 -759.75
197.75 -144.75 -700.88
112.15 -98.758 -664.75
381.75 -330.24 -637.37
165.75 -73.754 -630.84
322.75 -259.75 -573.42
1028.3 -1008.8 -361.24
384.75 -334.23 -634.95
48.751 6.2501 -668.09
373.23 -242.98 -595.26
114.26 -104.28 -679.25
252.75 -194.75 -596.25
196.75 -98.249 -621.29
272.82 -260.25 -611.75
1054.2 -1016.2 -316.61
66.368 40.25 -671.75
1096.8 -960.76 -368.86
93.74 -34.25 -651.68
253.75 -190.25 -686.38
96.746 -37.75 -647.62
346.25 -302.26 -648.42
170.18 -37.753 -693.75
258.73 -123.74 -648.75
1005.2 -948.81 -408.75
970.59 -954.76 -364.75
1068.2 -936.75 -355.28
109.26 17.627 -682.75
214.25 -93.247 -710.48
178.23 -166.33 -669.26
122.06 -111.54 -681.64
113.75 -80.251 -717.6
347.26 -232.25 -652.34
121.75 -19.254 -650.99
75.726 -58.247 -669.75
184.75 -121.25 -708.53
24.711 -21.279 -735.26
70.248 -32.254 -735.86
86.75 4.2497 -660.67
968.98 -953.25 -369.75
470.75 -354.88 -612.23
1093.7 -940.75 -358.16
253.76 -243.61 -639.25
378.25 -326.76 -639.2
227.9 -204.74 -614.76
121.25 -85.749 -716.6
1061.8 -1007.6 -399.25
171.25 -60.75 -636.11
998.23 -958.88 -415.26
396.75 -292.25 -556.12
326.25 -251.25 -573.72
1031.8 -1015.6 -335.75
1069.9 -1054.7 -376.75
143.74 -109.76 -708.01
115.99 9.7357 -722.23
1066.2 -938.75 -358.32
169.97 -159.57 -665.32
83.744 -23.75 -655.3
344.75 -255.25 -571.7
127.24 7.6649 -687.25
158.76 -148.64 -666.75
184.75 -138.74 -701.94
225.75 -180.76 -688.37
134.1 -2.7379 -694.25
107.75 -52.283 -644.25
331.75 -260.25 -571.33
99.749 39.552 -699.75
156.25 -39.75 -649.18
210.25 -112.25 -706.96
319.25 -247.25 -666.73
139.03 -7.7528 -691.75
139.23 -21.277 -660.91
207.75 -127.25 -704.64
139.37 -129.26 -671.25
257.74 -124.14 -641.75
264.26 -129.93 -642.25
114.25 -55.238 -727.84
498.25 -359.3 -565.75
240.73 -197.26 -601.73
182.25 -81.752 -626.33
305.25 -294.23 -627.25
47.744 -26.609 -728.26
307.36 -188.75 -663.75
74.75 13.75 -663.93
320.75 -282.25 -653.68
493.75 -360.63 -569.75
59.238 -36.29 -721.26
384.25 -279.76 -562.88
72.988 -7.7706 -755.74
376.25 -345.56 -577.75
88.247 37.271 -687.25
313.25 -190.25 -658.67
311.75 -198.75 -595.3
196.75 -106.75 -619.79
283.25 -182.25 -678.44
1050.2 -909.87 -380.25
122.25 4.1557 -671.25
133.25 -52.744 -643.94
173.75 -135.25 -701.46
384.25 -295.25 -555.56
1070.8 -921.25 -360.8
1049.2 -1032.3 -321.05
985.91 -943.75 -351.75
102.74 -17.25 -739.77
274.75 -210.75 -589.2
405.27 -286.72 -633.8
357.26 -279.75 -654.87
114.25 -72.25 -644.06
265.75 -222.25 -674.42
358.75 -325.24 -635.97
350.76 -329.88 -580.26
62.017 -12.245 -747.76
341.22 -235.26 -657.92
368.86 -234.75 -622.75
443.25 -353.56 -618.26
251.25 -196.75 -596.85
361.75 -255.75 -650.97
403.25 -279.16 -566.75
233.22 -213.16 -665.78
70.25 -9.7467 -743.92
246.75 -161.25 -691.73
1078.2 -943.25 -355.56
287.75 -234.25 -584.89
385.35 -256.25 -627.75
218.39 -203.25 -626.25
127.25 -101.75 -646.89
42.842 -8.2532 -665.25
301.75 -292.74 -613.75
277.24 -249.25 -595.14
207.25 -105.25 -709.08
111.75 -31.251 -733.33
356.86 -221.75 -618.25
140.75 -102.75 -711.69
295.25 -256.25 -662.32
56.749 -8.2527 -743.48
129.25 -34.106 -645.75
152.75 -100.75 -630.07
61.751 -4.25 -663.26
41.757 -2.7467 -673.68
127.26 -10.247 -724.2
331.32 -218.16 -589.11
332.26 -199.21 -614.75
53.188 -33.245 -682.25
468.25 -335.26 -544.79
335.76 -320.99 -623.24
94.257 33.513 -689.25
304.06 -174.75 -655.25
389.27 -291.74 -643.49
971.61 -957.24 -378.75
103.25 11.247 -665.46
154.75 -55.25 -720.44
142.25 -21.752 -716.53
302.75 -200.26 -591.32
167.75 -65.254 -633.83
272.73 -158.76 -677.69
248.78 -229.26 -610.74
57.59 -47.755 -698.25
340.03 -207.76 -610.25
508.25 -360.53 -568.74
142.74 -23.967 -657.74
397.75 -279.57 -565.24
180.25 -42.246 -656.25
1008.3 -965.72 -329.75
261.75 -232.75 -665.83
71.249 -20.753 -742.49
129.14 -111.75 -653.25
1088.7 -955.25 -361.23
162.75 -70.749 -718.93
93.251 -62.749 -718.42
131.76 -52.772 -644.02
91.757 48.625 -724.75
144.75 -78.251 -632.66
252.02 -109.75 -672.75
1057.8 -1019.4 -391.75
277.24 -227.25 -588.64
341.39 -206.23 -626.25
65.25 24.751 -667.84
386.65 -253.27 -598.76
56.267 -40.251 -688.25
171.25 -54.25 -709.87
1037.7 -915.67 -396.25
65.249 -11.25 -659.07
156.74 -139.5 -686.76
325.25 -251.75 -573.77
287.02 -152.24 -649.75
350.75 -279.75 -656.12
291.25 -244.75 -584.49
198.73 -171.26 -622.25
401.75 -268.29 -615.25
41.738 -30.256 -693.25
394.25 -283.75 -561.23
409.73 -292.27 -634.75
307.01 -171.75 -639.75
78.557 -1.2486 -753.25
195.26 -143.75 -616.15
1090.8 -979.17 -396.25
408.75 -331.74 -551.15
995.25 -959.6 -411.25
72.246 13.75 -747.94
225.75 -107.75 -622.19
265.24 -252.07 -644.76
242.95 -231.25 -624.25
184.25 -46.197 -694.76
265.74 -130.63 -650.75
373.76 -238.69 -612.25
321.25 -191.93 -610.25
371.81 -243.76 -633.74
88.259 -38.748 -654.24
203.75 -94.249 -621.54
379.25 -344.22 -623.25
1088.7 -984.93 -392.75
417.75 -322.25 -547.48
98.744 -83.249 -665.75
113.84 7.165 -667.72
222.25 -125.25 -701.26
167.75 -55.257 -639.78
363.77 -270.75 -652.8
213.75 -170.25 -691.37
215.25 -189.25 -678.3
1080.7 -988.6 -404.25
46.769 -36.742 -700.25
316.25 -232.25 -668.88
379.25 -306.75 -646.26
288.25 -164.29 -613.25
1018.2 -947.75 -425.29
301.75 -221.75 -582.85
323.36 -302.27 -584.23
77.165 -59.747 -669.25
1046.8 -915.76 -372.01
972.76 -958.23 -371.25
306.25 -259.75 -579.53
489.25 -360.17 -598.75
260.76 -250.8 -636.25
357.25 -338.06 -586.25
120.75 -60.25 -640.08
392.25 -333.76 -556.49
123.74 -48.24 -645.86
53.747 -41.385 -711.25
26.931 -9.747 -697.25
419.25 -277.34 -614.75
93.252 -49.749 -653.49
45.755 -0.74815 -670.56
54.748 -16.751 -669.16
262.04 -139.25 -624.25
88.254 -22.252 -651.11
994.76 -954.75 -422.75
148.25 -124.98 -697.25
272.74 -226.25 -590.59
170.91 -150.25 -636.25
179.75 -106.25 -622.26
157.75 -56.25 -719.1
131.75 -83.25 -637.2
130.54 -120.25 -669.75
397.75 -313.25 -642.07
243.58 -225.25 -613.75
968.25 -946.25 -378.46
244.75 -172.25 -599.93
110.25 -6.7511 -735.41
374.26 -348.59 -607.75
1061.8 -1046.2 -360.75
493.75 -353.05 -555.25
1021.2 -1006.5 -348.25
176.76 -137.75 -624.53
1085.1 -1048.8 -367.75
170.76 -55.746 -711.02
1071.8 -919.76 -360.96
92.747 -78.622 -703.25
81.249 -51.251 -658.74
73.75 -12.752 -745.73
992.63 -955.48 -406.35
291.25 -244.75 -667.72
1037.2 -1020.9 -328.75
110.02 12.742 -721.74
409.75 -344.25 -628.67
308.25 -244.75 -668.51
58.742 -9.2521 -664.98
381.73 -338.78 -564.51
392.75 -295.24 -554.95
437.75 -344.25 -627.01
452.75 -354.75 -615.25
377.75 -305.75 -646.68
345.73 -244.76 -657.66
176.75 -107.75 -622.71
54.997 -42.244 -684.75
1049.7 -902.75 -385.75
1028.8 -932.6 -420.72
146.24 -36.27 -647.61
156.24 -125.27 -701.66
183.24 -167.31 -676.26
405.25 -300.75 -551.98
381.82 -251.25 -626.75
950.26 -934.92 -391.75
145.75 -61.752 -635.59
256.26 -121.12 -649.75
287.25 -212.25 -586.47
186.75 -175.29 -664.75
102.75 -59.245 -727.94
421.75 -316.75 -637.43
155.75 -51.752 -640.3
242.83 -113.26 -690.27
159.25 -73.748 -631.4
126.25 -51.748 -644.89
145.25 -20.733 -712.27
379.25 -314.25 -644.48
138.17 -121.25 -650.75
365.26 -233.36 -601.25
272.25 -240.75 -664.52
387.25 -299.25 -554.13
502.25 -360.57 -594.75
1089.7 -984.59 -399.25
312.74 -303.68 -616.75
73.75 -12.755 -742.85
129.23 0.41168 -682.76
250.42 -107.75 -649.26
151.25 -23.823 -663.25
88.759 49.239 -713.25
77.756 -68.249 -692.76
200.26 -171.73 -685.53
159.76 -141.88 -686.74
98.751 7.7532 -661.32
153.75 -104.75 -630.04
75.245 -25.251 -655.71
263.02 -248.74 -612.26
78.606 23.714 -761.24
183.76 -155.74 -690.43
224.58 -212.75 -630.25
69.249 -14.755 -741.95
1025.3 -940.25 -424.83
412.27 -277.74 -620.77
122.26 1.7416 -673.74
1035.7 -917.94 -416.76
199.25 -148.25 -614.81
135.25 -66.747 -726.18
1046.3 -1003.8 -323.25
164.75 -97.25 -626.45
252.25 -234.75 -656.25
237.75 -176.25 -601.23
109.76 -99.751 -678.75
207.75 -129.75 -613.91
87.662 32.744 -732.24
382.25 -310.75 -553.66
1071.9 -996.75 -406.25
72.252 -3.2534 -745.72
387.75 -256.81 -594.25
389.75 -300.25 -553.59
257.21 -247.75 -629.25
356.76 -339.81 -593.25
345.25 -262.75 -569.28
172.75 -134.75 -626.11
78.249 25.747 -670.28
221.74 -156.25 -607.45
49.41 -38.258 -691.25
273.76 -236.74 -667.99
272.69 -248.25 -598.75
250.22 -240.73 -631.75
306.24 -198.26 -593.5
75.75 -19.749 -743.26
141.98 -128.25 -685.25
67.254 -23.249 -659.44
196.25 -152.25 -697.31
1025.2 -936.25 -426.37
416.25 -279.5 -568.76
1082.2 -1041.4 -393.75
1073.5 -1032.8 -397.25
92.747 52.032 -717.25
101.75 -47.753 -733.32
221.75 -106.25 -705.68
106.27 29.975 -705.25
955.28 -940.24 -404.25
108.25 21.431 -680.75
355.26 -221.11 -611.25
357.26 -309.73 -645.86
366.25 -343.98 -611.75
325.25 -213.75 -661.35
959.74 -936.15 -384.25
281.76 -146.01 -644.75
326.76 -217.24 -661.59
326.38 -195.22 -644.77
329.25 -213.25 -592.09
92.749 9.7473 -664.29
990.76 -963.62 -410.25
100.26 -11.249 -737.76
61.987 -33.754 -671.24
327.25 -268.25 -660.93
299.74 -289.25 -627.25
399.25 -330.75 -637.26
63.751 -13.75 -659.91
203.75 -126.75 -615.05
96.728 28.455 -678.28
317.26 -305.98 -624.25
203.75 -145.75 -700.79
106.25 -0.24672 -658.4
73.745 -59.958 -692.25
125.25 -44.237 -646.69
370.25 -346.14 -610.75
85.252 40.315 -688.25
363.75 -341.21 -583.75
277.21 -200.22 -590.17
420.76 -301.24 -634.92
295.25 -202.25 -589.24
260.75 -141.54 -617.25
258.25 -153.25 -607.29
412.74 -277.97 -620.74
1018.2 -992.25 -356.88
333.23 -311.49 -635.77
365.37 -234.76 -632.24
317.25 -288.25 -647.95
283.24 -273.93 -626.25
309.28 -173.75 -634.25
114.25 -53.75 -642.24
949.01 -931.75 -408.25
334.25 -260.75 -570.83
1057.3 -930.75 -358.28
73.249 -4.2495 -656.83
1091.3 -976.75 -388.25
320.75 -236.25 -577.88
113.75 17.695 -694.25
302.24 -167.24 -630.75
342.15 -216.25 -646.25
1026.2 -996.25 -332.84
79.759 5.2492 -748.03
386.76 -343.66 -626.73
135.21 -7.077 -676.77
1070.2 -1003.6 -400.75
298.25 -217.25 -674.71
97.75 -63.25 -650.85
88.873 -73.175 -698.74
304.75 -183.21 -605.25
123.87 -60.118 -726.06
323.25 -279.75 -655.74
206.25 -144.25 -612.31
101.44 23.754 -745.25
374.75 -312.76 -645.26
962.46 -946.75 -372.25
367.75 -310.25 -646.36
204.75 -98.269 -620.9
77.245 -27.751 -658.23
282.27 -146.72 -639.75
190.25 -69.247 -711.81
441.24 -337.98 -630.67
247.25 -203.25 -680.74
76.729 -53.012 -716.77
121.75 -107.38 -693.25
1012.2 -969.77 -332.25
272.75 -262.84 -632.75
393.25 -335.26 -634.81
87.243 -49.753 -653.71
350.75 -327.49 -577.25
268.74 -217.75 -591.33
68.25 -1.7498 -746.53
81.243 19.248 -743.36
1043.8 -1001.3 -321.25
360.43 -230.24 -599.24
1083.3 -1054.1 -375.75
101.74 41.139 -692.25
137.75 -98.248 -713.7
93.949 31.759 -724.76
169.41 -156.75 -647.75
370.26 -280.75 -650.85
308.25 -243.75 -578.28
75.751 4.2487 -658.06
106.26 -73.247 -649.57
394.26 -261.32 -595.25
1048.1 -903.25 -388.25
204.74 -178.77 -681.71
143.75 -93.249 -717.4
974.47 -933.76 -419.25
68.75 -9.7479 -743.92
103 -91.759 -673.25
97.752 -26.251 -648.47
78.243 4.2514 -745.58
166.25 -46.696 -647.24
318.76 -308.75 -601.75
385.75 -319.25 -553.6
56.749 33.452 -664.25
143.75 -109.25 -708.39
302.21 -290.21 -630.77
76.24 -62.018 -708.76
997.75 -955.74 -328.97
99.266 20.746 -728.25
979.25 -938.35 -410.25
962.75 -944.75 -376.99
239.74 -117.26 -626.92
39.247 -11.321 -749.25
975.76 -933.6 -354.25
241.75 -175.26 -691.07
352.75 -332.8 -582.25
367.75 -301.76 -648.84
1055.8 -1019.3 -398.25
106.23 19.8 -682.26
107.25 -93.122 -697.25
81.745 40.452 -684.76
1033.2 -1013.2 -365.38
150.71 -41.272 -712.32
386.25 -330.24 -637.66
143.75 -77.25 -722.91
104.75 20.977 -682.25
206.86 -192.24 -631.75
1007.8 -965.32 -334.75
305.74 -276.77 -651.66
77.75 14.247 -661.27
213.75 -142.25 -610.71
146.26 -16.316 -668.74
343.3 -310.5 -641.36
127.25 -30.749 -727.27
1037.6 -1023.3 -363.25
395.25 -322.24 -640.7
51.549 -34.753 -688.25
292.86 -279.75 -603.75
249.66 -228.25 -608.75
305.75 -284.82 -643.74
414.75 -335.75 -633.97
60.255 -1.2505 -660.81
280.75 -205.25 -588.68
190.75 -78.249 -713.29
1080.4 -992.76 -390.75
89.755 42.12 -738.75
203.77 -170.24 -617.58
111.25 -74.248 -646.46
274.5 -139.76 -654.75
86.242 3.221 -762.25
125.25 -74.255 -723.77
119.75 -22.251 -729.85
251.79 -242.26 -635.25
130.77 -116.68 -689.74
207.25 -95.75 -621.2
87.25 -46.75 -731.59
212.25 -164.24 -694.06
85.747 27.249 -737.57
132.76 -41.249 -725.79
305.75 -192.74 -597.24
255.18 -245.75 -631.75
232.76 -139.25 -696.45
79.753 -49.748 -663.63
179.75 -101.25 -713.36
89.74 -48.254 -651.77
291.25 -199.25 -677.01
95.756 -50.748 -648.91
230.11 -211.24 -617.76
1092.2 -939.25 -357.41
448.25 -355.98 -614.25
37.403 -19.761 -684.24
172.25 -161.25 -651.25
960.26 -922.52 -417.25
337.25 -254.75 -571.9
1098.2 -973.5 -385.9
313.75 -248.25 -576.51
510.75 -360.84 -569.75
75.749 -19.259 -740.48
133.75 -59.248 -637.34
1054.8 -1038.3 -327.25
311.74 -221.75 -670.36
259.25 -231.25 -665.77
58.771 -38.254 -673.25
98.249 -6.7575 -656.84
1063.7 -933.75 -356.18
175.25 -93.752 -624.9
216.78 -193.24 -618.26
401.76 -265.65 -596.25
92.748 -11.241 -655.33
142.41 -8.3719 -699.21
33.752 -25.257 -699.25
206.75 -111.75 -618.41
240.75 -138.75 -692.5
972.27 -958.27 -395.25
136.75 -40.758 -642.89
281.24 -155.45 -617.76
294.74 -171.54 -610.26
455.75 -331.75 -545.14
224.25 -114.25 -702.67
199.25 -189.29 -651.75
360.76 -290.76 -652.65
122.24 -23.766 -651.93
264.25 -210.25 -679.78
168.75 -132.75 -628.08
118.25 -26.75 -731.09
131.24 -15.756 -723.52
60.25 23.753 -667.53
143.74 -38.265 -719.18
140.25 -54.75 -726.39
1057.7 -1036.2 -348.14
129.35 4.2548 -705.75
345.25 -318.25 -573.91
240.25 -159.76 -602.59
224.25 -185.76 -685.11
46.25 -8.2498 -672.35
68.247 0.75177 -661.52
56.747 -16.251 -664.11
371.75 -301.26 -648.43
369.75 -327.24 -637.71
349.44 -214.25 -621.25
340.76 -327.57 -592.25
440.21 -342.28 -626.8
98.304 -25.301 -740.03
1007.9 -965.75 -347.75
157.72 -23.584 -675.76
137.72 -2.2605 -694.75
289.77 -247.74 -585.83
292.75 -186.75 -596.6
229.74 -121.75 -698.64
368.25 -276.25 -651.38
123.24 -8.2592 -659.01
151.25 -27.19 -658.76
108.25 -21.249 -651.68
482.25 -357.04 -562.24
140.25 -113.25 -703.5
1053.3 -1033.8 -361.8
104.75 -27.756 -649.95
96.207 35.741 -700.75
205.25 -110.75 -618.66
244.71 -226.79 -659.28
83.25 -36.249 -733.43
277.75 -217.76 -677.46
138.26 -57.252 -727
1080.8 -1057.7 -378.75
105.25 36.687 -717.25
1039.3 -913.99 -400.25
1062.7 -1010.9 -396.75
172.25 -68.748 -715.2
108.25 -18.246 -652.81
250.75 -146.75 -688.34
123.23 -41.246 -729.34
165.93 -35.744 -698.75
137.74 -16.766 -664.76
78.751 19.254 -666.72
417.75 -329.25 -548.7
331.25 -228.26 -582.32
320.25 -263.24 -662.57
322.69 -302.6 -637.31
99.563 -89.25 -679.25
363.25 -275.25 -563.75
1035.2 -930.75 -425.31
996.25 -955.25 -346.17
356.27 -224.25 -632.75
55.74 -10.253 -666.75
306.25 -247.25 -578.69
420.75 -313.25 -547.21
1040.2 -913.24 -416.25
165.19 -147.23 -640.77
67.255 -18.749 -661.96
33.143 -23.738 -682.75
39.748 -9.1801 -742.25
402.24 -296.25 -639.34
30.423 -13.276 -727.74
122.8 -107.24 -657.75
293.18 -158.25 -646.75
362.27 -229.56 -604.24
93.252 14.751 -740.44
244.75 -139.25 -612.85
124.75 -24.254 -648.88
22.267 -9.1326 -690.24
189.75 -148.75 -697.7
161.75 -54.75 -716.39
78.713 48.737 -684.25
184.39 -170.75 -640.75
109.75 -31.747 -648.45
1008.6 -992.25 -334.25
329.23 -224.26 -662.25
128.74 0.75532 -713.25
278.76 -151.41 -620.74
120.75 -72.751 -640.87
437.75 -354.26 -617.22
56.253 -20.749 -669.56
143.4 -40.597 -719.26
79.749 -14.748 -744.85
318.25 -232.25 -579.16
969.25 -936.75 -343.5
131.68 -106.76 -645.74
1077.8 -942.75 -358.55
193.75 -137.25 -616.43
233.73 -196.76 -605.82
399.25 -314.25 -641.69
437.25 -339.76 -629.85
193.75 -102.75 -711.35
122.36 -111.24 -667.25
169.75 -63.748 -634.48
255.25 -121.25 -663.25
116.26 -72.255 -722.44
210.75 -124.25 -615.09
52.246 -4.7512 -664.42
62.833 -46.255 -675.75
301.83 -281.75 -592.25
138.75 -91.75 -635.22
371.75 -243.84 -591.75
124.75 -81.752 -720.08
85.25 -49.25 -654.91
272.25 -260.52 -639.25
195.75 -142.77 -701.51
992.79 -959.75 -393.75
130.65 -92.287 -639.77
86.23 4.18 -759.26
110.25 -48.764 -730.12
146.96 -16.748 -694.25
1088.8 -1047.8 -379.25
231.76 -122.74 -618.83
233.21 -212.25 -614.75
402.25 -266.35 -592.75
119.75 -18.749 -650.86
409.25 -339.24 -632.32
78.75 1.2504 -659.87
160.75 -127.75 -701.78
200.75 -131.25 -704.83
159.75 -70.248 -632.35
162.76 -68.248 -718.69
401.26 -265.29 -603.75
310.25 -240.75 -669.23
390.75 -302.25 -644.08
77.249 6.2541 -661.38
127.75 -48.249 -730.41
86.75 -42.25 -734.09
966.25 -936.95 -346.25
243.75 -172.25 -691.46
46.75 -7.2501 -668.07
102.75 -77.399 -709.75
214.24 -195.45 -670.26
1097.3 -949.76 -366.3
411.75 -344.26 -628.67
80.757 -36.233 -732.92
370.25 -289.25 -558.59
255.76 -223.24 -600.13
371.74 -328.27 -637.35
297.25 -251.25 -665.53
104.93 -78.75 -711.24
35.258 -24.17 -697.25
956.87 -942.03 -413.22
124.25 -37.75 -732.03
471.75 -352.05 -556.24
992.75 -962.75 -345.24
401.75 -299.25 -640.26
32.241 -24.808 -683.25
1069.8 -925.26 -360
385.88 -266.3 -634.93
82.748 22.746 -669.66
409.77 -305.74 -639.12
393.75 -318.75 -641.78
73.753 -37.749 -659.14
377.25 -286.75 -558.95
333.5 -303.74 -575.26
227.25 -187.74 -684.74
227.27 -193.74 -609.22
365.26 -336.83 -626.23
330.25 -249.25 -664.11
963.75 -929.62 -358.25
320.25 -243.75 -667.02
1062 -1046.3 -348.25
388.75 -317.25 -552.54
102.55 26.743 -715.75
138.95 -116.75 -645.24
165.73 -135.26 -631.35
108.37 23.747 -717.25
83.251 -13.753 -744.72
93.169 -79.068 -670.44
333.75 -229.25 -582.39
213.25 -124.75 -614.89
103.96 -93.756 -678.25
200.27 -188.33 -662.24
323.75 -235.25 -666.38
256.24 -213.25 -596.68
302.45 -168.26 -646.25
179.25 -76.755 -628.12
115.25 -54.75 -641.92
975.32 -959.25 -353.25
127.34 2.7637 -684.75
968.15 -953.73 -391.25
1037.2 -1022.8 -358.25
193.26 -162.73 -689.5
215.75 -152.25 -609.29
114.25 -88.252 -711.02
81.782 27.064 -760.74
150.25 -94.248 -717.47
1048.2 -914.75 -371.64
133.25 -107.76 -704.33
280.74 -151.3 -623.26
195.27 -135.82 -703.87
66.784 -55.739 -684.25
244.26 -146.25 -691.75
328.22 -216.27 -660.16
104.66 11.753 -728.76
121.25 -21.256 -653.09
337.54 -203.26 -633.25
335.25 -289.76 -652.83
1086.3 -1045.2 -383.75
163.74 -145.38 -686.26
131.25 -19.244 -653.97
116.79 14.763 -701.75
1070.2 -917.75 -361.98
332.43 -320.75 -595.25
123.25 -38.248 -648.02
95.749 -69.245 -659.65
189.27 -135.8 -703.7
350.27 -220.81 -601.23
1049.3 -1019.8 -397.75
44.944 -22.254 -676.74
179.75 -100.25 -623.05
354.25 -279.75 -655.5
421.75 -327.75 -547.69
992.23 -954.24 -411.25
204.24 -193.95 -653.25
290.25 -242.75 -584.67
351.24 -216.37 -616.25
65.242 13.257 -752.82
251.12 -110.75 -675.75
388.72 -255.76 -599.75
1047.3 -1031.2 -339.25
49.712 24.249 -665.75
240.75 -188.75 -600.45
101.24 10.235 -667.56
334.26 -320.78 -621.25
229.95 -218.25 -628.75
294.25 -284.32 -626.75
130.25 -28.242 -647.81
137.23 -1.7518 -694.75
338.76 -212.72 -599.74
988.16 -945.74 -340.75
252.33 -109.75 -660.25
76.249 30.748 -672.89
358.24 -248.26 -577.95
34.25 -19.329 -709.25
379.25 -336.77 -632.01
175.25 -39.403 -666.75
286.76 -151.21 -638.75
109.63 12.255 -727.76
91.247 -48.256 -728.34
116.25 -21.75 -734.59
132.27 -5.26 -668.73
320.74 -194.14 -606.26
207.25 -137.25 -612.74
225.13 -212.74 -628.75
97.749 -67.563 -660.26
482.76 -361.22 -596.89
493.25 -352.61 -554.75
219.75 -175.25 -609.62
72.522 -57.745 -685.25
80.834 -65.758 -680.75
1052.7 -917.75 -366.12
95.249 -1.7544 -655.75
1018.7 -976.26 -331.25
55.247 -10.751 -667.15
377.75 -278.74 -562.81
91.257 22.263 -668.88
393.25 -346.58 -624.75
356.75 -317.76 -641.13
62.758 -29.246 -668
155.11 -19.746 -687.75
1070.8 -1052.2 -351.27
1008.8 -951.76 -425.35
78.748 14.239 -661.34
150.71 -32.294 -660.79
56.149 -44.244 -686.25
84.164 50.739 -694.74
259.75 -222.75 -672.48
500.75 -360.88 -570.25
94.782 -75.749 -662.75
186.26 -158.74 -626.39
354.89 -219.76 -619.25
143.76 -8.7824 -683.25
265.75 -215.25 -592.37
84.748 -3.2494 -746.01
157.76 -36.5 -653.23
259.76 -199.75 -593.94
115.24 -69.07 -723.25
305.75 -290.25 -595.75
442.23 -331.73 -633.89
188.75 -60.759 -708.51
374.76 -324.24 -558.7
90.766 -55.241 -656.88
45.758 -28.284 -723.74
373.76 -288.25 -649.15
270.25 -215.25 -590.56
76.247 45.163 -681.75
63.75 18.25 -665.72
248.93 -237.25 -622.25
154.75 -137.96 -686.75
116.98 -105.66 -687.04
97.952 33.744 -710.75
273.8 -263.75 -618.25
439.25 -337.24 -631.34
386.25 -300.25 -645.32
439.26 -330.24 -634.71
93.257 -49.233 -728.27
410.25 -311.25 -639.51
105.24 -9.2513 -735.39
430.23 -328.25 -547.21
316.74 -307.95 -612.75
1057.7 -1030.2 -362.54
1026.2 -1010.1 -336.75
318.25 -190.46 -608.75
384.25 -325.25 -555.57
352.75 -306.75 -563.14
259.25 -148.76 -610.55
96.247 -23.747 -649.18
55.752 -24.247 -736
1036.6 -916.75 -396.25
362.74 -232.97 -597.75
242.33 -104.25 -634.25
280.75 -269.17 -636.25
274.69 -201.69 -590.25
52.256 -21.24 -736.77
57.247 -19.751 -668.42
168.58 -33.744 -686.25
441.25 -327.75 -545.95
283.26 -270.78 -637.74
460.75 -339.25 -547.54
450.75 -340.75 -627.97
270.74 -209.75 -590.36
99.752 -73.748 -655.42
348.25 -326.03 -578.25
117.75 -8.7518 -731.13
99.247 34.037 -720.75
123.74 -2.266 -717.73
486.75 -358.29 -564.25
19.747 -17.573 -708.75
342.75 -292.75 -652.45
363.73 -235.84 -594.27
169.13 -40.246 -699.75
244.75 -146.76 -608.76
1090.3 -960.26 -364.32
19.27 -21.304 -718.74
1026.3 -938.26 -423.99
103.25 -34.248 -734.62
109.25 -17.25 -734.32
1073.2 -1032.5 -397.25
958.73 -923.26 -414.26
80.254 -2.7524 -744.37
93.746 -55.252 -651.05
173.24 -43.919 -698.74
293.69 -172.76 -666.74
105.09 25.257 -721.26
102.88 -71.163 -716.35
113.25 -49.752 -732.53
203.25 -93.751 -711.7
87.75 -31.755 -739.04
293.75 -241.25 -669.57
324.25 -213.76 -589.37
126.75 -50.754 -639.81
94.746 19.248 -737.7
350.75 -299.25 -562.75
1054.4 -1014.3 -403.75
244.98 -235.25 -631.25
233.75 -108.25 -699.96
135.74 -125.45 -672.25
92.749 -10.746 -655.48
245.54 -114.26 -635.76
174.75 -38.394 -672.25
341.74 -229.27 -585.13
226.75 -171.25 -692.56
121.75 -70.745 -724.88
361.75 -337 -623.24
82.962 -67.755 -669.75
194.25 -83.25 -713.19
131.75 -38.253 -643.55
36.958 -29.243 -717.26
135.75 -67.249 -635.85
340.25 -206.24 -615.25
1055.2 -1013 -331.25
191.25 -104.25 -620.65
359.74 -244.77 -581.29
292.25 -246.74 -666.93
130.24 -35.769 -649.85
89.255 27.757 -676.63
989.75 -965.75 -345.14
1059.2 -928.25 -358.51
122.25 -32.25 -732.7
1059.7 -1030.7 -363.95
84.245 -58.445 -721.26
136.25 -109.75 -704.35
214.75 -123.25 -703.69
394.75 -338.27 -632.8
334.25 -281.24 -656.51
356.83 -228.75 -638.75
285.75 -179.75 -598.87
136 -125.75 -668.75
124.12 -1.2536 -716.25
156.75 -61.751 -720.48
452.25 -326.75 -544.38
226.74 -118.25 -700.74
67.255 -50.553 -715.75
266.31 -256.24 -635.25
255.25 -198.75 -683.65
974.19 -959.76 -374.75
483.25 -358.87 -565.75
1000.2 -958.17 -349.75
67.25 4.25 -662.24
81.757 5.2406 -750.6
1028.2 -926.23 -408.75
332.25 -242.24 -575.95
56.75 3.2543 -748.59
423.25 -276.35 -609.75
226.25 -178.25 -689.7
62.247 -15.758 -740.46
102.25 -30.748 -649.74
322.24 -187.1 -626.25
88.971 -79.743 -682.75
91.745 -75.748 -706.75
215.73 -204.25 -634.25
468.75 -347.74 -552.31
208.25 -94.249 -711.07
94.251 37.862 -702.25
298.75 -200.75 -590.31
170.63 -156.75 -644.75
77.427 -60.256 -677.25
272.75 -187.25 -683.3
343.11 -209.24 -632.75
47.209 -30.279 -746.24
307.27 -173.23 -645.05
244.75 -196.75 -683.56
191.25 -175.5 -673.25
167.67 -157.65 -659.52
157.25 -62.757 -635.07
1079.3 -990.24 -394.75
240.26 -210.24 -606.46
103.88 28.742 -737.25
113.11 17.258 -689.75
76.276 20.457 -764.24
150.74 -56.783 -643.15
70.507 16.755 -758.25
1009.3 -994.16 -336.25
358.75 -289.25 -653.21
95.246 14.713 -754.25
89.956 44.254 -732.75
1060.8 -1007.1 -407.75
350.76 -217.41 -609.75
261.34 -126.24 -650.75
328.75 -301.24 -642.9
1075.2 -998.53 -394.75
1072.3 -1056.8 -361.75
991.24 -965.19 -414.25
405.25 -319.75 -639.96
220.25 -154.75 -607.91
368.25 -307.75 -557.23
89.252 -78.778 -695.25
102.24 25.472 -679.76
98.251 -39.75 -647.07
995.93 -958.26 -409.75
129.25 -39.748 -648.14
273.27 -223.75 -590
130.75 -48.242 -640.08
340.24 -320.81 -628.76
242.52 -109.25 -634.25
360.54 -226.75 -626.75
164.75 -87.75 -718.05
1044.9 -1028.7 -331.75
147.38 -22.469 -704.94
93.753 -59.781 -721.24
263.97 -136.74 -670.76
980.66 -965.75 -354.75
36.767 -19.195 -718.74
332.76 -322.78 -608.75
371.25 -272.25 -649.49
439.76 -346.77 -624.37
1058.7 -1042.8 -337.75
201.75 -191.7 -652.25
118.25 6.7369 -670.76
85.644 -76.236 -690.75
33.869 -11.274 -733.24
87.75 -0.25159 -656.06
309.75 -247.25 -577.64
118.76 7.4079 -678.24
244.25 -191.75 -599.27
265.75 -176.25 -685.56
255.24 -125.85 -632.76
83.252 24.251 -740.74
249.75 -140.24 -613.83
275.52 -266.26 -622.75
93.243 -50.752 -650.29
171.25 -71.753 -630.85
125.24 -55.243 -727.05
392.25 -335.76 -634.43
83.749 40.457 -686.75
227.74 -118.76 -619.38
262.25 -193.25 -593.74
72.741 -58.536 -709.76
480.72 -359.1 -603.21
80.748 -3.2488 -744.19
365.75 -262.25 -571.46
92.766 37.963 -696.74
248.76 -117.75 -678.73
271.58 -141.25 -662.75
250.29 -109.25 -649.25
364.25 -315.75 -560.19
969.78 -955.6 -387.25
324.77 -313.56 -621.74
376.68 -241.75 -615.25
985.76 -970.84 -349.75
119.75 -106.81 -690.75
290.24 -188.75 -676.01
185.77 -175.71 -657.25
245.25 -157.74 -603.4
188.75 -109.75 -620.08
237.79 -124.25 -692.98
360.26 -314.24 -561.58
158.25 -86.251 -629.03
250.66 -120.25 -675.24
362.75 -288.75 -652.62
195.75 -69.747 -711.73
1090.3 -951.75 -360.47
260.25 -235.75 -662.14
130.74 -44.25 -726.74
86.75 -8.7501 -742.13
330.01 -319.75 -600.75
54.251 -0.24971 -663.08
403.76 -296.24 -638.74
115.76 -52.251 -641.83
295.24 -264.26 -587.6
245.25 -154.28 -604.53
492.75 -362.36 -588.25
248.24 -203.75 -599.04
167.89 -42.248 -703.75
185.25 -72.751 -713.11
310.76 -271.74 -657.25
85.255 -8.753 -742.47
28.197 2.2446 -673.25
961.26 -934.79 -383.75
130.25 -86.745 -718.57
386.25 -270.26 -571.28
141.25 -107.75 -638.05
108.75 -7.7487 -733.22
393.74 -335.27 -556.81
377.75 -327.25 -558.77
1056.7 -1040.3 -347.84
42.768 14.251 -670.22
1005.8 -963.25 -329.25
292.25 -196.75 -591.28
502.75 -361.09 -592.75
219.25 -142.25 -609.93
361.24 -295.24 -652.42
948.75 -933.57 -397.75
69.251 6.2485 -659.35
225.25 -128.75 -614.2
44.243 -28.292 -721.75
220.75 -153.25 -607.91
177.75 -65.251 -712.25
337.75 -278.75 -568.38
1057.7 -1035.7 -327.08
229.75 -182.25 -688.26
180.75 -90.252 -624.66
75.753 21.761 -664.42
245.25 -175.25 -599.41
98.749 -24.749 -737.25
1053.2 -1032.4 -360.47
259.76 -167.75 -687.39
222.26 -192.25 -612.48
311.25 -253.75 -665.7
148.25 -87.75 -631.3
957.25 -942.2 -403.75
175.76 -39.168 -669.25
401.75 -323.25 -639.72
378.26 -264.23 -573.76
92.246 19.243 -670.69
271.25 -145.31 -621.25
129.25 -3.7415 -711.26
122.24 -18.253 -727.5
147.25 -54.25 -723.73
147.26 -17.449 -677.74
172.75 -89.251 -716.15
153.25 -25.044 -663.75
231.75 -146.75 -607.82
363.75 -241.69 -586.76
263.25 -231.75 -598.08
1000.2 -951.93 -414.75
994.73 -967.75 -339.75
302.27 -196.24 -670.92
1052.6 -1010.2 -325.25
351.25 -252.75 -656.24
98.751 -0.24963 -737.39
219.25 -109.75 -705.42
484.25 -362.86 -585.75
150.75 -80.249 -721.62
117.26 -13.246 -729.34
69.264 -37.728 -727.43
86.75 -26.255 -740.99
111.74 2.2428 -731.42
375.75 -286.75 -559
172.74 -135.76 -626.45
131.66 -2.253 -712.25
135.76 -71.751 -635.4
265.25 -237.74 -663.4
138.82 -3.7429 -696.75
242.75 -144.25 -609.66
174.24 -152.49 -687.26
262.25 -127.26 -653.25
239.24 -128.75 -692
298.75 -287.18 -630.75
1095.8 -973.29 -391.24
1017.6 -1002.8 -346.75
1089.7 -958.75 -367.06
61.747 -44.661 -710.25
296.26 -164.71 -622.24
110.26 -56.745 -649.11
224.25 -163.75 -606.41
1054.8 -901.63 -379.26
242.77 -128.75 -689.02
149.75 -75.25 -722.51
168.25 -59.252 -714.12
120.75 -110.76 -675.75
124.75 -25.749 -648.09
187.25 -84.25 -624.96
254.78 -241.83 -617.37
354.36 -219.25 -621.25
360.24 -266.25 -653.87
405.25 -308.25 -549.92
204.24 -172.77 -686.69
247.77 -230.25 -657.73
66.751 -33.248 -730
333.64 -222.67 -586.71
1044 -1027.8 -330.75
320.75 -223.75 -666.7
211.75 -151.26 -699.02
110.91 25.25 -702.25
356.75 -263.25 -569.41
153.11 -43.55 -711.35
160.75 -78.75 -630.02
952.83 -927.25 -399.25
371.25 -340.37 -624.76
1053.7 -1025.2 -319.89
311.76 -302.05 -620.75
233.75 -106.75 -626.65
202.75 -143.75 -613.38
1060.2 -928.25 -358.23
1069.3 -918.75 -358.65
226.76 -215.77 -650.75
92.749 14.752 -747.46
104.75 -51.752 -731.85
308.25 -237.25 -670.17
165.03 -153.26 -651.75
164.74 -151.75 -648.75
239.75 -202.25 -679.32
60.249 -7.7553 -744.24
383.76 -303.75 -645.78
125.24 -36.769 -642.76
31.727 -26.628 -687.26
153.25 -68.25 -722.17
973.35 -959.29 -392.25
133.25 -81.249 -636.33
284.27 -155.69 -620.73
1026.7 -994.24 -331.96
311.87 -302.25 -605.75
1078.7 -994.33 -406.75
51.345 -36.259 -706.75
1059.8 -1018.7 -319.86
288.56 -278.25 -611.75
230.75 -193.25 -606.64
173.25 -47.894 -647.24
328.75 -284.25 -572.51
386.26 -259.44 -585.74
410.75 -313.75 -548.5
150.25 -140.19 -669.75
246.75 -127.75 -622.43
1064.8 -1035.2 -364.57
128.26 -117.73 -679.25
334.26 -321.86 -593.25
291.74 -228.75 -583.6
107.25 -31.751 -645.87
83.748 43.11 -690.75
75.759 1.2472 -748.83
236.25 -151.75 -606.19
135.25 -50.749 -728.15
104.65 29.256 -715.25
103.75 16.139 -674.75
355.25 -293.26 -652.61
252.28 -110.75 -661.75
390.72 -259.68 -592.26
163.25 -73.253 -631.22
145.24 -67.263 -639.76
344.25 -276.25 -566.8
100.54 30.262 -712.75
1067.3 -1001.9 -402.75
294.76 -184.75 -672.09
330.74 -212.75 -656.27
1083.8 -945.75 -356.84
97.25 -39.256 -733.46
59.24 -42.253 -684.75
323.25 -299.25 -641.39
417.26 -310.24 -637.94
99.256 32.745 -708.25
291.25 -241.25 -669.33
105.75 -11.252 -652.5
404.25 -307.75 -640.72
128.25 -37.751 -643.45
124.75 -12.747 -723.62
216.25 -140.25 -610.66
266.75 -206.75 -681.07
186.25 -142.25 -700.41
114.75 -8.2587 -655.78
291.57 -282.24 -615.25
368.76 -304.75 -556.94
92.947 -79.438 -674.55
120.75 -31.263 -648.32
141.99 -13.754 -709.75
1055.5 -1013.7 -396.75
116.75 8.3957 -677.25
224.71 -213.87 -650.76
948.8 -933.25 -385.75
124.24 -40.25 -729.06
250.27 -110.75 -678.75
209.25 -117.25 -617.04
110.25 -25.248 -647.33
351.25 -285.25 -562.73
103.53 19.253 -724.25
1058.7 -922.25 -364.39
290.75 -206.75 -587.53
74.753 -65.111 -694.75
42.257 -26.233 -712.75
1055.2 -927.25 -360.14
113.52 14.776 -684.24
273.75 -173.74 -599.4
74.755 -38.24 -733.3
113.93 7.7495 -721.25
210.75 -87.749 -711.87
234.75 -213.92 -666.25
313.19 -281.15 -581.28
141.25 -100.25 -713.37
137.26 -120.54 -692.24
170.53 -154.74 -641.76
79.747 -43.756 -731.23
1063.8 -937.25 -355.63
102.88 -62.584 -654.29
330.9 -197.24 -637.75
369.25 -282.76 -560.73
172.26 -36.868 -672.75
1043.3 -916.03 -381.27
83.005 47.25 -696.25
241.75 -167.75 -601.17
265.25 -213.25 -678.64
183.25 -45.03 -692.75
71.252 -30.745 -733.69
179.25 -92.751 -714.48
305.23 -189.26 -665.96
94.249 -62.752 -722.88
128.75 -40.25 -730.41
356.25 -284.75 -561.65
223.25 -149.25 -607.97
116.25 -79.753 -718.9
89.249 -29.75 -650.34
296.24 -162.3 -628.25
311.25 -283.75 -648.61
256.25 -146.75 -684.84
372.24 -347.8 -607.25
271.71 -137.25 -652.25
1084.1 -1053.8 -377.25
995.23 -957.78 -416.24
293.25 -238.25 -670.71
353.76 -338.51 -597.25
144.27 -35.742 -717.89
38.371 -27.724 -698.25
103.25 3.7495 -737.07
428.75 -326.75 -546.51
1029.8 -921.78 -412.75
33.753 -33.8 -715.75
1048.2 -1024.7 -317.35
1041 -998.76 -334.75
320.51 -185.25 -627.75
1020.5 -978.25 -341.75
311.8 -290.27 -587.72
308.74 -182.38 -609.76
119.75 -55.751 -730.35
109.25 -52.75 -731.64
419.74 -297.27 -633.57
362.75 -325.25 -637.42
386.36 -255.27 -624.24
1066.8 -1042.3 -337.69
336.79 -315.73 -580.27
959.75 -932.84 -359.25
131.75 -17.249 -723.8
267.63 -135.76 -662.75
1045.8 -914.34 -380.26
343.76 -330.96 -611.75
51.158 -36.752 -701.75
75.767 -4.883 -755.24
361.24 -343.05 -598.25
111.25 11.134 -675.24
213.25 -144.25 -700.75
325.75 -205.41 -597.25
112.37 -48.278 -645.35
218.75 -175.74 -689.52
403.25 -339.23 -632.4
284.25 -248.25 -663.95
75.522 -51.265 -669.23
303.25 -285.69 -640.25
48.748 -17.253 -734.25
146.75 -81.75 -631.95
346.26 -333.52 -599.25
108.25 -58.752 -729.07
196.75 -134.25 -615.55
144.73 -37.259 -721.69
63.353 -53.24 -689.75
96.755 -55.237 -725.58
369.74 -269.76 -649.81
383.25 -297.75 -646.16
153.75 -81.25 -630.56
1088.7 -980.94 -403.75
233.25 -152.75 -606.11
191.25 -84.75 -624.28
264.25 -175.75 -597.6
73.75 -12.255 -745.9
349.75 -294.25 -562.82
195.76 -173.53 -680.73
270.15 -249.24 -602.26
102.91 32.739 -710.75
1036.3 -1019.3 -371.27
128.25 -51.75 -729.9
376.74 -314.75 -555.45
352.75 -313.25 -565.27
66.262 -51.133 -703.25
1016.3 -1001.2 -336.75
100.28 -67.824 -717.75
248.75 -169.25 -600
246.26 -128.74 -621.21
75.25 -25.249 -737.77
1038 -995.76 -335.75
1049.8 -923.25 -368.45
79.757 44.965 -688.74
442.25 -334.25 -547.6
257.73 -246.53 -620.44
388.75 -326.75 -639.45
328.18 -200.25 -648.75
104.76 -51.706 -728.89
245.74 -223.26 -609.24
141.52 -6.8007 -697.2
283.75 -209.75 -678.73
263.72 -128.77 -653.25
1066.7 -1002.4 -393.76
192.25 -122.26 -707.76
159.75 -106.26 -713.4
367.76 -341.73 -619.74
60.25 3.25 -663.93
299.25 -236.25 -581.11
345.43 -321.25 -576.25
234.5 -212.25 -613.24
247.91 -127.25 -683.25
328.25 -297.75 -645.58
410.75 -276.24 -619.74
267.25 -180.25 -596.11
202.34 -191.24 -641.25
1052.2 -918.23 -370.33
136.24 -125.77 -674.25
65.276 8.9237 -766.24
229.43 -213.76 -621.75
149.25 -107.25 -632.78
255.25 -196.75 -595.41
286.82 -152.75 -652.25
362.26 -249.24 -578.94
367.25 -244.26 -586.69
93.247 11.295 -758.75
980.26 -965.64 -365.25
1018.8 -949.76 -427.3
47.246 21.33 -667.25
388.75 -321.25 -641.58
106.25 -68.251 -723.41
210.75 -124.75 -614.95
346.75 -271.75 -567.03
315.76 -180.91 -626.25
235.77 -118.23 -623.47
476.25 -350.66 -554.25
343.75 -226.75 -588.22
288.75 -215.25 -585.73
390.01 -257.28 -611.24
264.76 -177.25 -685.93
246.47 -102.75 -639.24
467.75 -348.24 -620.13
1078.2 -948.74 -359.41
192.75 -93.751 -622.41
115.25 -21.757 -648.79
252.05 -113.25 -666.25
333.54 -313.76 -582.24
172.26 -125.25 -624.26
229.23 -191.76 -607.15
167.82 -148.74 -638.76
291.25 -253.25 -662.99
361.24 -338.12 -580.74
53.237 -25.944 -751.25
110.62 3.7559 -662.82
102.75 12.746 -666.46
93.25 -17.749 -653.68
287.75 -226.75 -584.8
150.25 -108.75 -710.64
189.25 -137.75 -618.16
62.753 -23.749 -665.84
972.77 -932.65 -344.27
362.25 -341.79 -587.75
157.74 -23.856 -674.75
380.12 -246.25 -619.75
255.8 -246.25 -628.75
90.239 9.1304 -756.25
252.84 -108.75 -665.75
276.25 -229.25 -589.36
375.78 -241.24 -606.75
262.25 -212.25 -678.77
212.25 -164.75 -611.14
72.75 -15.25 -741.94
188.74 -129.75 -618.14
992.77 -964.94 -416.24
61.254 -21.742 -739.93
191.26 -166.25 -626.26
65.244 -55.612 -694.75
228.26 -114.74 -621.3
304.65 -289.25 -596.25
474.25 -361.84 -596.25
82.744 33.233 -741.75
59.254 8.4113 -751.75
426.25 -340.24 -551.72
1084.7 -936.25 -355.65
409.75 -329.25 -637.06
407.25 -285.72 -560.7
442.75 -345.76 -625.81
278.25 -197.75 -590.64
32.593 -25.242 -685.75
246.98 -229.26 -613.24
177.25 -117.75 -621.91
162.25 -66.25 -633.64
179.76 -163.06 -678.74
389.3 -256.71 -617.09
105.6 40.753 -705.25
309.75 -276.26 -653.91
170.75 -57.746 -638.04
255.75 -243 -646.75
104.01 -77.217 -711.08
83.959 -60.305 -666.69
213.25 -183.74 -682.26
355.76 -339.61 -595.75
298.25 -193.25 -594.2
338.24 -290.25 -568.86
253.08 -116.75 -661.75
400.75 -310.75 -641.61
56.793 4.5321 -753.74
421.75 -338.26 -632.14
250.75 -137.74 -616.04
129.76 -119.52 -670.25
275.75 -244.25 -593.92
380.76 -263.99 -575.24
77.771 28.754 -667.25
145.25 -44.24 -648.43
121.25 -106.96 -693.25
339.15 -212.75 -646.75
154.25 -117.25 -706.63
1034.3 -1007.3 -363.07
173.96 -152.76 -634.74
161.42 -39.407 -699
1071.3 -1044.3 -343.41
312.76 -300.21 -628.74
70.751 -13.743 -742.45
118.75 -37.749 -730.86
161.25 -111.25 -711.46
27.484 -12.252 -703.75
277.53 -260.24 -603.26
978.27 -963.59 -362.25
381.07 -258.74 -636.27
1062.3 -1045.8 -357.75
338.75 -262.75 -660.83
355.75 -286.75 -561.43
121.75 -46.251 -732.07
381.25 -315.25 -554.21
95.754 -48.249 -648.56
268.25 -211.25 -679.59
312.12 -303.26 -610.75
150.25 -130.65 -692.25
94.252 8.2542 -663.77
171.74 -37.772 -666.76
340.75 -209.99 -606.75
364.75 -341.16 -582.25
147.25 -99.75 -632.35
197.75 -125.25 -706.47
100.75 7.2521 -665.1
232.75 -123.25 -618.91
357.25 -314.75 -643.17
1044.6 -1028.2 -321.75
93.766 47.019 -735.74
369.74 -235.34 -607.75
222.75 -127.75 -700.77
34.514 -11.248 -685.75
950.76 -935.96 -417.75
90.248 -60.986 -718.25
87.25 2.7496 -660.1
323.25 -245.75 -575.22
44.259 -6.7351 -740.74
235.76 -226.21 -638.25
123.74 -48.739 -645.78
99.751 -35.753 -737.45
251.25 -199.25 -683.22
342.58 -220.24 -649.26
385.25 -341.96 -628.25
285.78 -225.81 -674.84
159.53 -149.24 -668.25
334.75 -280.74 -656.73
992.25 -962.83 -411.75
373.25 -334.27 -632.77
261.02 -140.25 -622.73
256.23 -208.76 -595.88
366.25 -233.82 -602.25
130.25 -14.252 -719.4
195.25 -102.25 -711.25
426.76 -317.25 -636.62
245.75 -220.25 -607.11
321.91 -197.75 -654.75
383.25 -283.75 -560.4
125.75 -51.755 -644.97
952.75 -936.75 -365.25
180.25 -89.749 -714.6
153.29 -39.224 -708.92
327.76 -235.25 -664.83
126.75 -91.252 -714.8
240.75 -190.75 -685.78
69.34 -48.248 -668.75
267.25 -174.26 -598.31
309.25 -260.25 -662.99
219.75 -154.25 -697.89
113.25 -0.74298 -664.34
326.25 -270.75 -660.07
151.75 -108.76 -710.97
99.752 -8.2417 -656.33
966.75 -951.12 -374.75
258.51 -248.23 -623.27
350.75 -336.7 -604.75
83.252 -43.746 -732.36
242.75 -157.25 -693.04
200.75 -139.25 -702.78
1049.3 -900.21 -395.75
264.76 -229.75 -596.15
83.25 -14.75 -656.08
993.75 -971.75 -371.92
1057.2 -1014.8 -319.25
59.25 1.75 -664.2
1083.8 -990.42 -399.75
508.75 -359.58 -565.75
354.26 -336.79 -588.26
339.25 -249.75 -573.5
1062.7 -925.75 -361.62
968.75 -942.75 -377.47
93.749 -52.253 -729.93
350.79 -222.25 -640.25
101.25 38.838 -706.24
132.1 -67.902 -642.12
116.25 -16.75 -733.98
238.25 -167.25 -693.18
46.395 -26.755 -678.74
402.75 -347.9 -624.76
451.25 -355.64 -614.25
45.229 -31.179 -717.76
248.75 -216.25 -672.89
139.26 -117.22 -698.74
348.75 -333.13 -615.75
1079.3 -989.73 -405.75
1005.3 -990.28 -342.75
117.24 -91.254 -649.86
372.26 -316.74 -557.28
1030.8 -1003.3 -360.36
998.23 -964.75 -338.75
984.26 -942.17 -354.75
342.75 -241.76 -577.48
391.75 -289.25 -641.79
173.75 -109.25 -623.29
283.8 -227.72 -674.16
1031.6 -927.75 -424.25
115.75 -25.75 -735.04
98.253 -21.251 -737.86
130.75 -64.75 -727.03
72.75 8.25 -747.48
1101.8 -972.65 -395.75
354.25 -337.39 -612.75
1099.8 -967.75 -378.75
336.75 -257.25 -571.26
119.25 -58.248 -726.7
263.43 -132.24 -665.25
1066.3 -1050.7 -355.75
92.258 35.186 -689.24
29.442 -2.7546 -684.74
346.25 -331.98 -591.75
1026.8 -1012.2 -354.75
305.77 -285.7 -642.72
1063.7 -936.75 -355.7
130.08 0.77304 -710.77
983.53 -969.27 -379.75
381.25 -292.75 -556.6
371.74 -247.48 -586.76
342.74 -331.12 -604.25
474.25 -340.77 -546.76
61.232 -41.752 -673.25
251.76 -242.3 -633.25
278.75 -201.75 -589.66
90.763 27.819 -677.73
104.19 26.758 -720.76
390.76 -273.73 -569.31
129.27 -6.6782 -664.23
123.26 -92.734 -712.17
44.756 -22.741 -730.46
360.75 -272.25 -654.06
167.75 -58.749 -714.21
171.75 -139.26 -697.98
347.24 -329.61 -621.76
138.75 -59.747 -641.95
414.75 -271.19 -597.25
70.251 -23.746 -740.89
391.24 -258.92 -613.25
1051.7 -917.75 -366.74
47.946 -27.245 -739.25
80.749 -14.75 -653.79
356.25 -267.25 -567.82
377.73 -246.29 -596.26
428.25 -352.9 -619.75
1089.3 -968.25 -373.46
342.25 -267.25 -659.54
80.75 7.2571 -661.63
1026.8 -984.25 -321.75
990.9 -948.24 -329.25
96.253 -29.757 -739.36
245.28 -106.25 -638.24
297.25 -261.75 -585.18
37.751 5.7505 -673.85
381.25 -324.24 -640.63
320.75 -251.75 -665.68
20.246 -10.952 -689.75
157.25 -124.25 -702.89
311.75 -226.75 -580.99
56.75 12.75 -665.73
255.25 -150.75 -686.72
128.8 1.7457 -701.25
333.57 -199.74 -636.25
340.75 -267.75 -659.75
96.746 -35.75 -650.66
150.93 -31.25 -713.75
466.75 -346.25 -621.96
123.76 7.2094 -701.75
209.75 -165.76 -692.9
100.25 -59.751 -648.18
233.67 -222.75 -629.75
230.25 -192.75 -682.43
103.22 37.249 -702.75
256.75 -148.25 -610.02
86.749 -14.749 -741.19
194.25 -121.25 -617.46
81.251 -5.2508 -743.82
1055.6 -1017.7 -401.25
374.75 -318.75 -556.88
157.25 -129.75 -698.42
316.25 -202.75 -663.49
240.78 -113.75 -630.25
1072 -1031.2 -397.25
310.75 -258.76 -663.8
218.26 -197.17 -667.75
104.35 15.761 -726.26
1068.3 -1004.1 -408.25
311.25 -267.75 -659.65
123.25 -64.75 -639.27
61.251 -22.75 -666.57
362.75 -326.75 -566.31
1083.7 -988.94 -408.75
75.244 -47.759 -721.52
358.75 -240.75 -584.25
1068.3 -1001 -394.75
105.25 15.254 -670.19
299.75 -257.75 -582.51
954.77 -925.35 -396.75
111.25 -11.75 -735.8
292.75 -236.75 -583.15
168.62 -38.237 -697.76
95.25 -38.752 -736.58
327.77 -222.24 -662.56
253.25 -167.25 -600.35
78.746 -21.25 -657.08
88.893 -79.741 -683.75
402.74 -266.04 -598.75
189.24 -155.26 -693.38
505.75 -361.84 -588.25
109.25 -34.249 -736.44
332.25 -298.75 -646.54
353.75 -269.75 -566.98
78.396 -1.754 -751.25
68.246 -19.264 -742.83
108.73 -90.847 -703.27
164.74 -121.75 -627.47
153.25 -110.75 -631.36
282.74 -268.07 -642.25
1074.8 -1051.7 -355.76
199.26 -187.74 -640.75
334.25 -318.73 -625.25
248.2 -116.75 -637.25
161.75 -84.251 -719.02
228.74 -215.5 -656.26
351.25 -216.75 -627.25
253.49 -106.76 -670.75
509.75 -361.65 -573.75
305.55 -290.75 -596.75
141.75 -36.254 -652.31
188.75 -139.25 -618.52
142.74 -14.714 -666.76
393.25 -311.25 -551.43
225.75 -128.25 -699.66
132.69 -29.91 -649.9
307.25 -260.75 -662.48
375.26 -349.65 -603.75
219.74 -157.25 -607.94
75.795 -65.993 -695.73
143.11 -21.251 -715.25
152.75 -44.255 -644.33
409.25 -299.25 -552.26
1048.2 -1005.7 -324.75
323.23 -291.76 -578.19
320.76 -218.73 -585.2
153.41 -62.265 -640.94
364.24 -342.3 -585.75
288.25 -246.74 -666.07
1045.7 -1031.2 -357.75
299.75 -169.43 -618.75
959.07 -944.24 -412.77
125.46 -88.616 -641.91
75.256 47.267 -678.25
354.25 -278.25 -562.84
295.74 -164.75 -621.25
162.25 -68.749 -718.93
160.24 -150.25 -662.25
193.25 -81.75 -713.25
243.44 -111.25 -634.74
155.75 -68.75 -721.32
976.25 -935.57 -420.75
77.143 46.249 -682.25
107.45 26.266 -689.24
42.241 -31.906 -705.75
215.25 -142.25 -700.89
220.25 -157.25 -697.1
1055.3 -1015.2 -384.25
1007.8 -952.27 -419.23
971.58 -955.75 -364.75
149.23 -135.83 -682.26
241.75 -214.75 -607.54
85.524 46.75 -703.75
150.14 -29.253 -713.25
289.75 -275.26 -639.75
65.515 -54.754 -685.75
392.75 -298.75 -553.73
83.25 -30.749 -739.2
120.24 -30.751 -730.47
1047.8 -912.75 -374
1072.8 -1057.2 -361.75
124.29 -100.75 -649.25
156.25 -78.251 -720.88
997.75 -983.12 -357.75
197.75 -94.75 -621.79
1056.2 -1030.7 -361.73
88.25 -30.249 -739.61
358.75 -243.59 -581.76
1084 -1048.3 -364.75
253.38 -145.21 -614.27
122.75 -101.88 -702.75
350.75 -266.75 -657.42
159.75 -51.75 -716.64
178.26 -132.75 -622.51
118.24 5.0641 -668.76
112.81 -1.5693 -659.66
214.25 -164.76 -694.09
