329.75 -265.75 -571.2
645.75 -337.75 -525.07
1034.8 -339.74 -477.24
667.75 -349.18 -587.74
844.25 -274.02 -510.26
438.26 -290.24 -623.53
378.76 -346.89 -618.24
515.25 -327.75 -624.11
693.75 -276.89 -582.75
614.75 -306.25 -523.3
910.25 -279.75 -494.46
798.75 -321.74 -499.8
763.75 -335.26 -585.91
906.25 -289.73 -487.93
732.25 -316.25 -596.67
617.75 -359.22 -572.75
568.25 -346.26 -540.25
872.25 -279.75 -567.62
573.25 -341.76 -609.61
634.25 -307.75 -520.39
533.75 -346.26 -611.97
990.25 -327.24 -471.12
594.25 -360.15 -569.25
657.25 -358.55 -562.75
507.75 -322.25 -536.61
813.24 -267.56 -553.77
726.75 -279.52 -582.74
1001.1 -339.03 -553.37
752.25 -327.75 -507.46
868.25 -342.94 -505.24
766.25 -267.41 -540.75
531.25 -355.74 -555.76
956.25 -302.74 -479.1
856.25 -353.28 -529.75
683.75 -357.93 -557.25
683.75 -272.52 -575.76
606.75 -279.85 -595.25
934.75 -351.78 -544.76
765.74 -269.6 -532.22
383.25 -335.76 -633.62
803.25 -353.95 -552.25
665.25 -301.25 -517.66
433.25 -318.25 -546.21
835.75 -349.72 -518.75
556.25 -315.25 -530.08
716.75 -356.6 -560.75
278.74 -251.26 -594.92
737.75 -324.74 -508.19
834.25 -266.92 -550.75
931.76 -344.74 -493.11
404.75 -320.25 -639.95
371.75 -313.74 -645.02
1040.2 -344.53 -476.26
951.25 -278.87 -549.74
402.25 -301.75 -640.55
922.25 -295.25 -568.94
641.75 -304.25 -520.08
839.75 -332.75 -499.54
497.75 -333.25 -624.91
397.26 -357.88 -594.75
706.25 -311.75 -600.23
526.75 -315.75 -533.91
446.25 -330.25 -632.83
675.75 -354.27 -577.75
532.25 -351.13 -607.24
549.25 -326.75 -619.68
634.25 -340.74 -601.26
414.75 -348.52 -560.25
630.25 -339.25 -527.83
808.75 -346.86 -516.26
861.75 -296.24 -577.93
1052.3 -349.67 -481.24
928.74 -346.64 -497.24
790.75 -275.42 -517.24
675.75 -357.59 -566.25
944.75 -331.25 -479.27
361.74 -338.55 -620.26
565.75 -352.96 -548.25
621.75 -358.19 -577.25
613.25 -335.75 -527.75
778.74 -311.75 -501.03
765.75 -267.04 -544.25
542.25 -324.75 -621.03
766.75 -350.01 -569.76
507.75 -336.25 -540.47
855.75 -338.75 -502.21
853.75 -271.89 -511.75
430.75 -352.6 -561.24
589.25 -288.75 -606.17
756.75 -274.15 -572.74
454.75 -336.74 -547.05
693.75 -287.75 -593.7
481.75 -351.61 -554.75
498.75 -359.11 -565.24
707.25 -283.24 -588.55
488.75 -344.25 -547.33
678.25 -317.25 -603.75
535.75 -313.25 -532.87
897.24 -296.24 -487.13
963.25 -293.75 -484.89
670.25 -342.26 -594.66
928.75 -317.75 -569.66
619.25 -291.75 -604.79
691.75 -288.75 -594.62
359.76 -317.73 -641.95
534.75 -360.6 -587.26
851.26 -295.22 -578.88
372.76 -347.55 -587.75
465.75 -315.25 -631.53
940.75 -303.75 -479.82
292.75 -251.25 -584.95
618.75 -304.75 -523.08
552.25 -324.25 -619.76
834.25 -274.74 -566.25
395.25 -343.25 -628.73
762.75 -310.75 -592.88
786.25 -293.25 -586
870.75 -296.75 -490.72
900.75 -333.23 -492.91
264.54 -243.75 -604.25
917.75 -267.2 -542.75
742.75 -349.79 -574.26
563.75 -333.25 -615.66
529.75 -343.76 -614.62
606.25 -307.25 -524.25
426.75 -322.25 -636.4
434.76 -318.75 -635.42
717.75 -306.75 -509.34
770.25 -315.25 -502.32
404.27 -288.73 -635.44
403.25 -354.17 -615.75
420.76 -332.24 -549.08
665.25 -309.75 -516.02
724.25 -278.84 -582.24
586.75 -346.24 -603.89
858.25 -267.8 -518.74
840.25 -274.17 -510.75
898.25 -351.8 -538.75
921.75 -302.75 -570.71
792.75 -297.75 -586.92
747.25 -352.27 -568.75
759.25 -268.34 -558.75
426.75 -338.26 -631.7
764.75 -322.74 -504.32
667.25 -304.75 -604.31
1069.1 -359.75 -499.75
865.75 -352.95 -527.75
273.25 -243.25 -595.41
354.25 -289.25 -653.72
920.75 -322.75 -569.29
684.75 -315.25 -603.03
754.75 -318.25 -593.45
527.25 -360.59 -568.25
498.75 -314.75 -537.65
376.26 -248.42 -590.24
420.26 -294.24 -631.84
500.25 -322.75 -537.66
791.25 -267.64 -533.26
897.25 -340.59 -561.22
632.25 -353.63 -543.23
382.25 -313.75 -644.33
1042.7 -342.97 -480.25
802.75 -353.92 -532.75
813.25 -300.75 -497.54
762.25 -272.91 -525.76
912.75 -317.25 -573.28
829.25 -287.26 -500.67
672.75 -356.58 -571.76
784.25 -353.57 -532.24
819.25 -322.75 -497.52
547.25 -354.12 -551.74
580.25 -334.25 -530.94
799.75 -271.79 -521.26
648.75 -302.24 -605.98
692.25 -293.26 -597.19
874.25 -345.63 -508.24
802.75 -354.69 -537.25
880.75 -305.25 -487.85
832.25 -353.93 -544.75
511.75 -308.75 -536.75
381.77 -336.72 -562.73
560.25 -305.75 -617.88
775.25 -351.22 -526.75
256.08 -246.23 -626.28
826.75 -348.94 -561.25
781.25 -282.76 -510.95
629.75 -356.12 -548.75
948.75 -270.1 -529.75
623.25 -357.54 -553.25
813.25 -353.24 -529.74
714.25 -269.15 -545.25
510.25 -355.21 -605.26
758.25 -343.63 -579.73
669.25 -273.83 -579.76
623.75 -338.25 -604.5
935.73 -272.4 -547.23
974.75 -347.25 -557.94
762.75 -267.36 -542.25
671.75 -326.75 -602.89
897.75 -352 -537.75
917.75 -300.75 -570.97
809.25 -351.49 -524.75
645.75 -328.75 -520.79
933.25 -279.3 -557.25
921.25 -267.59 -542.76
791.75 -346.3 -571.26
903.75 -342.67 -557.74
702.75 -269 -549.25
858.25 -311.25 -580.35
498.75 -306.26 -625.74
795.75 -335.23 -581.23
643.25 -276.73 -587.25
400.76 -271.08 -622.25
776.75 -272.24 -567.74
974.75 -346.75 -558.13
716.25 -306.75 -509.54
697.25 -348.93 -583.25
516.75 -347.26 -546.67
927.24 -330.27 -484.87
979.25 -321.26 -472.48
875.75 -289.25 -573.48
1055.7 -354.24 -522.76
883.75 -265.04 -542.25
690.25 -347.09 -528.26
531.25 -344.75 -613.62
804.25 -276.82 -571.77
908.75 -324.24 -486.45
888.25 -322.76 -489.08
792.25 -348.14 -519.76
647.75 -312.25 -607.78
843.25 -328.76 -496.94
650.25 -357.77 -553.25
910.81 -298.67 -572.03
659.75 -278.85 -588.76
857.75 -332.25 -574.01
952.25 -323.75 -475.87
1050.7 -349.13 -480.25
586.75 -341.74 -534.51
956.25 -286.27 -490.41
577.75 -316.75 -527.28
935.75 -268.68 -512.76
871.25 -350.75 -518.74
969.75 -337.75 -561.21
753.24 -281.11 -516.71
654.25 -326.25 -605.43
904.75 -268.49 -550.25
827.25 -353.01 -528.25
599.25 -351.33 -542.74
815.24 -266.6 -549.8
695.25 -355.6 -570.25
744.25 -303.75 -506.24
885.25 -346.82 -554.75
938.75 -268.42 -515.75
380.25 -346.56 -575.75
838.75 -350.5 -520.25
320.71 -297.52 -641.39
539.75 -360.18 -566.25
941.75 -271.27 -541.76
828.25 -354.18 -534.75
794.75 -327.75 -502.35
478.25 -309.75 -541.1
621.75 -335.26 -526.47
689.25 -340.75 -593.03
833.25 -316.75 -494.42
963.75 -319.75 -565.01
796.25 -343.71 -573.73
538.25 -298.73 -618.07
499.75 -362.39 -579.25
1067.8 -359.87 -487.75
796.75 -351.93 -560.25
610.25 -318.25 -612.69
332.26 -272.25 -570.2
511.75 -343.26 -544.01
597.25 -357.33 -585.25
513.75 -360.96 -590.75
831.75 -332.25 -577.83
377.76 -337.72 -630.71
484.75 -341.24 -622.86
991.74 -342.25 -557.74
379.25 -324.75 -557.13
779.26 -271.83 -524.78
556.75 -287.74 -608.92
729.25 -321.25 -508.37
554.25 -348.44 -606.73
669.25 -339.76 -523.77
260.16 -248.26 -617.74
662.75 -297.75 -519.23
886.25 -265.06 -542.25
436.75 -341.25 -629.06
604.75 -329.24 -611.44
706.75 -357.14 -550.72
851.75 -264.97 -531.75
904.75 -282.73 -492.42
469.25 -299.76 -626.9
499.25 -321.25 -537.64
791.75 -332.76 -505.19
833.25 -286.74 -500.42
483.75 -318.75 -539.56
918.26 -352.06 -534.24
674.25 -357 -569.75
370.73 -293.74 -649.73
768.75 -353.41 -561.76
922.25 -353.07 -531.75
889.75 -270.9 -507.26
774.75 -274.1 -521.76
842.25 -297.25 -494.46
499.25 -353.32 -609.76
1050.2 -354.75 -529.75
388.25 -324.25 -640.52
379.24 -307.75 -554.37
965.25 -289.26 -489.36
880.75 -282.25 -568.7
920.25 -267.77 -511.26
660.29 -330.71 -519.79
688.75 -350.98 -533.75
980.75 -333.23 -469.27
386.75 -309.25 -552.74
459.75 -336.74 -546.45
712.25 -273.15 -534.25
750.75 -332.26 -509.71
587.25 -350.42 -599.26
889.75 -350.67 -545.25
663.25 -273.38 -579.24
401.75 -357.55 -582.25
915.25 -266.09 -515.75
771.75 -351.6 -565.76
594.25 -322.75 -525.7
953.75 -271.37 -519.25
792.75 -267.21 -534.75
337.25 -312.24 -637.75
556.25 -353.05 -600.75
659.27 -328.74 -519.16
896.75 -349.71 -514.24
547.75 -361.03 -571.25
909.25 -288.76 -569.24
627.25 -334.74 -525.56
1066.9 -367.75 -521.75
926.75 -265.61 -522.75
435.75 -337.25 -549.55
1034.2 -355.75 -542.51
712.25 -292.75 -514.5
826.75 -353.04 -550.75
364.75 -344.88 -601.75
799.25 -351.75 -560.25
948.11 -350.26 -487.24
885.75 -264.19 -526.25
942.25 -354.63 -543.75
509.25 -304.25 -623.81
949.25 -271.29 -535.25
562.75 -288.75 -609.1
545.25 -360.62 -568.25
699.75 -279.25 -585.25
882.25 -296.25 -575.4
821.75 -354.1 -533.75
734.25 -325.25 -594.69
748.75 -312.25 -504.91
966.76 -363.23 -546.76
493.25 -352.89 -611.26
751.25 -336.74 -512.34
352.78 -332.12 -623.23
499.25 -356.15 -559.26
768.75 -310.75 -592.09
507.25 -321.25 -536.59
535.75 -333.23 -535.8
1077.2 -367.76 -495.25
619.25 -297.76 -607.94
697.75 -320.25 -512.17
733.75 -270.1 -537.24
635.25 -352.94 -541.74
847.25 -265.4 -543.75
951.77 -367.8 -523.24
551.25 -318.75 -620.43
613.25 -358.3 -578.75
474.75 -360.65 -570.75
669.25 -322.25 -516.16
331.75 -283.75 -655.2
383.26 -347.51 -574.76
396.25 -356.41 -584.75
540.25 -360.3 -566.75
558.75 -326.25 -618.51
629.25 -338.74 -603.37
407.75 -277.63 -624.25
976.75 -336.75 -560.88
861.25 -270.67 -557.75
941.75 -285.25 -489.69
863.25 -297.75 -491.46
482.25 -320.25 -629.52
783.75 -324.75 -502.55
945.25 -310.25 -567.93
728.75 -274.15 -575.25
641.75 -313.25 -608.6
574.25 -285.73 -605.2
444.75 -360.32 -571.75
689.25 -278.39 -585.25
665.25 -343.26 -527.03
928.26 -354.76 -530.25
644.75 -330.75 -605.21
460.75 -356.81 -563.75
725.75 -279.89 -583.24
623.75 -342.74 -531.1
951.24 -350.26 -484.91
868.75 -268.19 -515.74
605.25 -356.41 -551.26
489.23 -329.85 -540.36
615.75 -328.76 -524.49
327.25 -256.25 -572.71
961.26 -280.37 -545.76
886.25 -265.49 -519.75
528.75 -355.02 -554.75
794.25 -313.25 -588.73
1024.3 -350.75 -465.01
627.75 -278.44 -591.24
473.25 -337.76 -545.3
871.75 -286.26 -572.34
275.53 -259.76 -605.75
585.75 -291.77 -608.7
556.25 -348.11 -606.75
897.75 -305.25 -485.6
944.75 -321.25 -567.37
911.25 -291.75 -486.69
913.25 -279.75 -561.64
656.25 -308.25 -517.37
611.75 -353.2 -591.25
808.75 -266.01 -545.25
781.25 -352.1 -528.23
755.75 -296.25 -506.75
766.25 -310.75 -502.63
456.25 -331.75 -631.09
878.25 -312.75 -488.22
967.75 -281.92 -543.25
515.25 -290.76 -616
457.75 -357.85 -565.75
620.75 -337.24 -527.68
893.25 -264.97 -520.25
874.25 -353.2 -535.25
929.25 -334.26 -563.12
532.75 -306.25 -534.44
522.75 -353.81 -605.26
421.25 -317.75 -546.84
430.76 -287.23 -623.14
513.75 -312.25 -625.03
960.75 -338.75 -474.68
718.25 -319.25 -598.2
503.25 -306.25 -625.15
753.75 -267.46 -544.75
363.75 -300.75 -649.4
822.75 -290.75 -499.73
314.27 -269.74 -577.22
569.25 -328.75 -616.45
736.75 -279.07 -581.25
631.25 -342.24 -529.86
913.24 -313.25 -573.88
449.25 -309.26 -632.64
935.75 -268.15 -514.75
634.25 -306.25 -520.66
705.75 -269.55 -565.25
937.25 -272.7 -503.74
322.25 -256.75 -573.75
645.75 -344.74 -596.2
537.25 -323.25 -532.97
957.25 -346.24 -556.9
594.75 -326.75 -613.51
812.25 -336.76 -577.71
622.75 -319.25 -521.61
929.75 -306.25 -569.97
724.25 -320.75 -597.15
739.25 -356.33 -555.25
737.75 -336.76 -588.72
433.75 -323.75 -546.36
481.75 -346.74 -550.03
380.22 -252.5 -588.77
495.75 -328.25 -539.16
882.25 -318.75 -488.68
460.75 -330.24 -544.06
945.25 -277.87 -497.74
745.75 -309.25 -505.37
793.25 -266.31 -545.75
661.25 -307.75 -516.79
941.71 -361.01 -513.24
413.74 -294.76 -634.36
803.25 -274.63 -516.24
692.75 -302.75 -600.68
654.75 -326.25 -518.92
839.75 -351.99 -524.25
888.25 -276.21 -500.75
842.75 -266.14 -527.26
845.24 -270.11 -516.22
961.75 -297.25 -560.42
753.25 -340.74 -583.3
859.25 -271.78 -559.75
1062.3 -353.27 -494.25
906.81 -265.75 -542.25
346.25 -293.25 -652.55
851.75 -265.36 -528.75
693.25 -345.59 -526.26
925.24 -320.26 -481.98
894.25 -263.75 -527.75
719.25 -354.71 -539.24
716.75 -290.75 -514.97
899.75 -345.18 -505.22
305.26 -261.25 -580.28
522.75 -348.74 -611.36
894.25 -350.2 -515.75
750.75 -296.25 -591.5
281.24 -269.21 -637.26
623.75 -335.75 -605.92
712.75 -291.75 -593.96
404.25 -323.75 -639.28
263.79 -252.74 -639.75
823.75 -292.25 -498.87
376.25 -350.41 -597.25
791.25 -352.92 -529.76
567.75 -356.72 -554.75
652.25 -357.77 -553.25
993.25 -322.25 -556.46
525.75 -303.26 -621.43
813.25 -272.76 -517.26
623.25 -312.25 -521.39
440.75 -298.26 -629.42
621.75 -338.75 -604.49
1020.2 -335.26 -473.15
942.75 -296.75 -482.24
379.74 -307.75 -554.25
873.75 -351.55 -545.75
465.25 -337.75 -627.5
729.25 -313.25 -597.23
483.75 -359.11 -566.25
310.25 -247.75 -577.48
963.25 -327.25 -473.32
986.25 -325.25 -470.85
529.25 -342.75 -615.43
585.75 -339.24 -532.95
363.76 -344.22 -595.25
943.75 -349.25 -489.48
645.75 -318.75 -607.9
950.47 -359.24 -493.26
775.75 -281.75 -579.82
496.76 -329.74 -539.41
867.75 -277.24 -565.76
1000.2 -336.75 -468.18
484.25 -288.75 -617.88
818.25 -265.72 -543.25
753.75 -280.99 -516.75
713.75 -310.75 -599.2
1066 -358.75 -510.25
371.24 -260.27 -574.44
852.75 -326.26 -577.77
533.75 -318.75 -622.71
945.75 -269.04 -521.75
725.25 -336.74 -515.26
878.25 -265.45 -521.75
900.25 -282.74 -566.79
944.75 -301.25 -480.22
525.25 -350.35 -609.25
990.24 -324.77 -471.91
672.25 -355.51 -575.25
702.77 -272.81 -574.9
774.75 -355.46 -541.75
865.75 -353.14 -539.75
519.25 -307.26 -623.4
778.75 -266.8 -549.75
629.75 -312.75 -520.5
924.75 -265.21 -528.25
514.75 -330.75 -537.49
669.25 -328.74 -602.58
392.25 -259.56 -597.25
868.75 -325.75 -492.56
847.25 -266.92 -550.25
573.25 -356.96 -590.75
767.25 -298.75 -504.37
709.75 -312.25 -510
419.75 -331.75 -549.08
642.75 -358.92 -562.75
747.25 -354.38 -536.75
958.25 -300.26 -480.26
725.75 -280.26 -521.89
836.75 -343.21 -508.74
695.75 -315.75 -601.54
851.25 -317.75 -580.52
471.75 -315.75 -630.79
396.75 -329.25 -553.19
826.75 -271.08 -517.73
831.75 -311.75 -583.82
800.25 -351.47 -560.74
574.75 -359.99 -580.25
684.75 -356.65 -568.75
756.75 -338.74 -584.45
860.25 -296.24 -578.11
976.75 -311.75 -560.55
683.25 -353.37 -578.25
781.75 -287.25 -583.33
859.75 -322.24 -492.41
742.25 -333.26 -511.22
834.75 -353.58 -546.25
716.25 -342.25 -587.71
730.75 -301.24 -508.66
674.25 -357.2 -550.25
891.75 -307.25 -486.29
643.75 -271.82 -576.25
922.75 -265.21 -531.75
504.75 -321.25 -626.52
932.26 -350.84 -500.76
938.25 -353.59 -499.25
701.25 -353.89 -538.26
372.76 -348.83 -596.25
714.75 -289.76 -515.82
811.25 -266.77 -532.25
605.25 -359.27 -561.25
722.25 -278.66 -524.23
426.25 -285.77 -623.24
773.25 -323.25 -589.91
757.25 -351.25 -528.25
471.75 -342.24 -547.94
698.75 -287.24 -519.86
608.75 -356.67 -584.75
950.25 -270.51 -518.25
857.25 -343.26 -506.74
472.75 -357.73 -564.25
754.25 -327.24 -507.03
787.75 -279.26 -576.19
593.75 -352.24 -595.75
361.75 -278.25 -562.66
658.25 -318.75 -517
819.25 -295.25 -498.33
855.75 -265.37 -527.75
843.75 -279.25 -504.53
839.25 -266.96 -550.75
293.75 -247.25 -583.65
747.75 -338.76 -514.17
971.76 -346.75 -471.86
577.75 -279.29 -597.25
705.75 -325.75 -512.47
817.75 -350.47 -559.77
505.25 -355.56 -557.75
1010.2 -343.26 -466.4
735.75 -355.59 -541.75
724.25 -310.25 -597.81
1002.3 -330.74 -470.91
884.25 -318.25 -575.96
647.25 -335.75 -523.73
839.25 -353.04 -547.74
821.25 -292.24 -581.33
760.25 -271.55 -528.74
364.76 -337.25 -625.24
799.75 -299.25 -586.46
806.25 -269.1 -558.75
424.25 -315.25 -636.97
487.25 -329.25 -627.54
779.25 -288.26 -584.24
1020.3 -337.25 -471.79
845.25 -301.74 -581.3
320.69 -298.03 -640.83
830.75 -330.24 -499.18
729.25 -314.25 -597.2
827.25 -321.25 -496.13
720.25 -352 -532.75
414.25 -359.9 -579.75
799.75 -280.26 -575.9
395.25 -325.75 -552.5
509.75 -323.25 -625.66
928.25 -293.75 -484.58
822.75 -267.98 -525.25
371.75 -314.75 -644.64
863.25 -316.25 -490.57
1012.3 -349.23 -551.61
863.25 -269.15 -514.77
932.25 -309.25 -569.79
365.25 -248.75 -580.84
777.26 -289.79 -506.77
403.25 -324.75 -550.4
510.25 -336.74 -540.41
1081.5 -374.74 -506.76
610.75 -359.67 -570.75
907.75 -274.57 -558.76
454.75 -304.25 -630.5
915.25 -272.37 -553.25
859.25 -303.25 -579.79
792.26 -341.8 -576.38
748.75 -275.32 -524.26
538.75 -361.48 -575.25
962.76 -345.74 -475.33
262.68 -252.75 -623.25
822.25 -289.75 -500.3
740.75 -308.75 -595.58
396.76 -353.12 -574.76
488.25 -288.75 -617.42
695.75 -329.26 -514.91
440.25 -358.16 -567.77
683.25 -319.25 -602.89
553.75 -359.05 -561.75
570.25 -283.39 -603.24
644.25 -338.26 -601.48
940.24 -347.76 -490.54
932.75 -343.24 -491.08
731.75 -277.77 -523.75
504.75 -297.76 -621.64
706.25 -278.59 -583.77
1005.2 -340.75 -553.61
778.75 -284.26 -510.14
701.75 -318.25 -600.55
617.75 -359.28 -561.75
903.75 -271.86 -555.75
755.25 -291.26 -509.09
819.25 -341.77 -572.26
827.25 -275.79 -568.26
763.25 -317.25 -592.47
765.75 -299.75 -504.29
767.75 -326.26 -505.04
584.75 -345.25 -537.54
529.75 -291.25 -614.71
808.25 -289.74 -581.68
690.75 -311.25 -512.55
704.75 -308.25 -510.9
465.75 -326.25 -631.11
437.75 -352.98 -560.73
832.75 -266.46 -528.25
505.75 -355.37 -605.78
253.41 -241.96 -621.23
877.25 -341.11 -563.77
886.25 -352.8 -535.25
837.75 -284.25 -501.38
486.75 -357.79 -563.25
521.25 -360.66 -590.25
675.75 -358.05 -561.75
877.25 -352.4 -541.25
564.25 -357.26 -556.25
1070 -363.75 -511.25
463.75 -328.75 -630.87
860.25 -273.92 -507.76
379.74 -348.93 -614.26
923.75 -273.63 -500.74
1014.2 -342.79 -550.13
618.25 -355.77 -548.75
849.75 -308.25 -581.49
948.25 -339.76 -560.03
352.76 -247.23 -576.81
673.75 -357.8 -565.26
581.25 -360.35 -568.75
853.75 -352.97 -527.75
467.25 -334.75 -628.54
499.75 -332.75 -624.8
506.25 -320.25 -626.37
543.75 -337.25 -536.68
878.75 -347.96 -511.74
790.25 -309.25 -499.52
1038.7 -355.25 -466.38
825.25 -322.75 -582.89
682.75 -357.38 -551.25
260.73 -250.34 -638.26
789.25 -346.25 -571.75
454.75 -354.01 -560.26
851.75 -341.61 -567.26
720.25 -354.03 -569.74
771.75 -276.2 -574.26
416.75 -318.75 -547.46
886.75 -351.06 -518.75
950.75 -338.28 -561.03
934.75 -311.25 -569.49
674.25 -342.27 -594.06
977.75 -353.74 -555.49
478.75 -354.62 -558.76
689.75 -271.52 -572.75
612.25 -357.65 -581.25
655.25 -330.25 -520.2
510.25 -291.26 -616.93
382.25 -252.08 -592.25
422.75 -309.75 -547.54
904.75 -352.39 -531.75
637.75 -283.46 -596.25
732.75 -351.4 -573.25
917.75 -344.06 -499.75
421.25 -359.13 -574.25
980.75 -308.25 -557.83
845.75 -336.75 -572.67
588.75 -350.24 -599.26
617.25 -287.75 -602.23
705.75 -334.26 -594.95
993.75 -318.25 -476.78
471.25 -328.75 -542.38
398.22 -287.28 -637.84
836.25 -307.25 -493.54
683.26 -340.28 -594.31
1028.2 -348.26 -467.36
958.25 -275.56 -538.75
609.25 -334.25 -608.78
873.25 -272.66 -559.75
424.25 -359.14 -573.24
811.74 -267.04 -551.81
636.25 -356.66 -579.25
379.26 -309.75 -554.36
665.25 -269.83 -566.75
950.73 -367.65 -517.75
1034.7 -350.75 -540.53
580.75 -342.75 -535.94
536.25 -361.32 -582.25
716.25 -320.75 -598.24
524.75 -361.62 -583.75
822.75 -267.81 -525.74
367.75 -324.74 -639.07
861.25 -264.54 -533.25
952.25 -367.94 -524.25
859.25 -341.76 -504.81
823.25 -333.74 -502.07
392.25 -328.75 -638.44
782.25 -270.46 -563.75
405.26 -357.32 -578.26
625.25 -327.75 -522.99
771.75 -266.8 -546.25
723.75 -355.88 -543.25
860.75 -284.24 -572.33
705.75 -272.71 -536.24
756.25 -303.75 -504.64
537.25 -355.42 -600.26
878.75 -264.37 -527.25
358.24 -341.12 -605.25
934.75 -337.24 -561.1
809.25 -310.25 -586.84
729.75 -268.72 -543.25
751.75 -320.75 -593.44
758.25 -353.44 -563.76
931.25 -310.25 -480.04
383.25 -353.14 -594.25
956.18 -281.91 -495.3
286.75 -269 -645.75
889.25 -307.25 -576.32
945.25 -363.23 -512.25
753.75 -327.25 -507.09
785.75 -354.71 -552.75
866.75 -351.79 -522.25
432.75 -323.75 -546.51
469.25 -356.66 -562.75
748.75 -300.25 -593.05
506.75 -360.52 -568.75
1065.2 -364.69 -474.25
614.25 -299.75 -609.36
1036.8 -351.74 -468.04
927.25 -290.25 -566.18
902.75 -305.25 -484.15
566.25 -325.25 -529.72
928.75 -296.25 -568.19
574.75 -288.73 -607.74
536.75 -294.76 -616.16
435.75 -324.25 -546.15
613.75 -359.66 -569.25
963.76 -281.22 -545.26
902.23 -295.77 -485.18
572.75 -328.75 -615.98
875.75 -312.25 -577.99
673.25 -302.25 -602.97
293.75 -278.51 -639.75
439.71 -300.25 -629.74
960.25 -281.45 -497.25
865.75 -341.87 -504.26
647.75 -347.7 -592.77
795.25 -354.66 -536.75
880.25 -284.75 -570.45
499.25 -349.24 -550.42
466.75 -307.74 -630.12
963.25 -347.75 -556.79
755.25 -317.25 -504.4
705.25 -268.65 -551.25
387.24 -252.24 -609.75
669.25 -357.72 -567.25
675.25 -350.82 -534.74
799.75 -284.75 -579.58
812.25 -337.74 -576.95
895.75 -318.75 -574.28
545.75 -323.25 -620.79
546.21 -294.42 -614.95
351.25 -313.74 -642.08
637.75 -296.25 -605.06
919.25 -269.02 -508.26
697.25 -356.19 -567.74
405.75 -339.25 -632.38
665.75 -300.76 -603.44
529.75 -335.75 -619.37
836.25 -295.75 -495.77
745.75 -311.75 -595.08
934.75 -312.75 -479.35
900.75 -340.61 -499.23
478.25 -326.75 -629.31
987.25 -320.76 -472.95
799.75 -283.73 -507.38
858.75 -348.28 -556.75
526.75 -358.71 -562.26
852.75 -350.29 -518.75
382.25 -338.84 -630.75
944.25 -275.68 -548.76
863.75 -331.26 -573.73
390.75 -314.75 -643.02
754.25 -328.76 -507.64
848.25 -353.83 -534.25
764.25 -355.88 -545.75
529.25 -341.76 -616.11
381.76 -349.44 -614.74
950.75 -270.47 -527.75
918.25 -292.76 -568.64
929.25 -331.25 -564.97
530.25 -317.75 -533.43
492.25 -361.66 -573.75
720.75 -355.21 -540.75
953.25 -301.25 -479.79
609.25 -279.31 -594.25
786.25 -301.76 -588.75
904.75 -343.73 -503.25
726.25 -346.01 -582.24
532.75 -316.75 -533.1
557.75 -351.27 -546.75
801.25 -324.24 -500.21
600.25 -313.25 -524.36
350.75 -308.75 -645
1009.8 -326.24 -475.46
601.24 -323.74 -613.29
825.25 -354.01 -546.25
573.75 -343.24 -537.11
598.75 -357.9 -555.75
342.75 -290.25 -653.5
735.25 -289.25 -589.9
391.75 -353.16 -579.25
533.75 -296.24 -617.37
637.75 -358.53 -571.25
426.25 -313.25 -636.51
748.75 -331.25 -509.39
914.25 -272.6 -553.74
646.25 -272.32 -577.75
894.25 -300.25 -486.73
702.75 -352.63 -576.24
1003.8 -336.25 -468.65
317.25 -258.25 -575.08
490.75 -311.25 -539.14
673.25 -326.75 -602.68
913.25 -266.81 -542.75
573.25 -306.26 -616.41
875.25 -314.25 -488.75
610.25 -283.61 -599.25
501.75 -340.25 -543.28
805.75 -269.71 -524.24
989.28 -354.38 -555.81
1081.6 -372.26 -490.75
435.25 -338.25 -630.8
952.38 -369.22 -504.26
799.25 -292.76 -584.22
740.25 -280.73 -519.14
769.75 -351.75 -565.75
642.25 -279.08 -590.76
453.25 -317.75 -543.56
412.25 -354.94 -569.26
900.75 -340.53 -560.73
757.25 -268.97 -535.76
827.25 -354.29 -543.25
690.25 -310.25 -512.68
729.75 -296.26 -594.03
906.25 -326.74 -487.97
886.25 -324.25 -489.86
746.75 -267.63 -554.25
683.75 -355.53 -543.75
842.25 -284.26 -500.7
883.25 -303.75 -487.67
673.75 -328.75 -517.39
800.25 -318.75 -587.29
646.75 -357.36 -574.75
474.75 -300.75 -626.7
787.25 -266.65 -549.25
608.75 -279.26 -594.24
867.25 -334.25 -497.39
722.24 -316.75 -508.58
631.75 -317.75 -520.3
917.25 -265.81 -538.25
871.75 -264.26 -535.25
724.75 -274.24 -575.75
756.25 -342.46 -581.25
757.25 -268.98 -561.25
901.25 -265.04 -541.75
815.25 -333.28 -502.73
1046.7 -353.25 -472
429.75 -335.74 -548.98
939.25 -296.75 -482.48
842.25 -345.95 -511.75
486.25 -286.8 -615.76
818.75 -304.25 -585.09
765.25 -274.14 -523.26
788.75 -273.24 -520.74
798.25 -354.31 -551.75
720.25 -271.96 -535.24
667.75 -306.75 -604.63
969.25 -338.24 -561.09
791.75 -299.25 -500.85
908.4 -351.15 -535.11
870.25 -352.07 -523.25
677.75 -354.3 -577.26
571.75 -319.25 -528.17
324.74 -268.25 -572.64
617.25 -305.75 -523.06
813.25 -313.75 -496.61
969.25 -323.25 -563.81
534.25 -360.61 -568.26
882.25 -298.25 -488.76
889.75 -338.74 -564.24
710.25 -337.76 -592.14
736.25 -292.75 -511.06
649.75 -357.65 -572.75
761.75 -305.75 -503.6
750.25 -277.27 -577.75
674.25 -323.25 -603.45
527.75 -360 -591.25
378.29 -282.24 -646.82
598.75 -328.75 -612.4
384.76 -330.24 -557.37
927.25 -296.76 -483.42
947.25 -296.25 -564.39
890.75 -350.26 -546.25
719.75 -325.26 -510.57
835.25 -265.39 -542.75
674.25 -354.81 -576.75
582.25 -354.52 -549.24
946.16 -280.1 -495.14
836.75 -336.76 -574.04
547.25 -307.76 -619.99
847.25 -273.67 -510.26
709.25 -274.83 -531.74
456.75 -311.25 -543.74
760.75 -351.34 -568.24
754.75 -269.11 -561.74
585.25 -327.26 -527.82
842.75 -298.75 -580.97
883.25 -266.51 -547.25
859.25 -275.72 -505.74
739.75 -314.75 -506.15
937.76 -330.24 -481.35
807.25 -338.76 -576.86
832.25 -326.25 -497.15
510.75 -315.75 -625.74
816.75 -265.68 -541.25
859.25 -289.74 -575.68
812.75 -268.37 -526.26
615.25 -359.64 -568.25
774.25 -268.75 -559.74
600.25 -285.25 -601.98
729.75 -313.25 -507.39
690.75 -295.75 -598.55
752.25 -323.75 -592.65
420.75 -339.76 -552.38
269.28 -242.73 -598.59
916.75 -279.76 -561.19
708.25 -356.05 -565.75
865.75 -300.75 -490.44
371.24 -338.18 -627.76
815.25 -266.15 -534.75
644.25 -313.75 -518.56
556.25 -354.32 -551.25
556.25 -358.05 -558.75
887.25 -322.76 -489.2
639.25 -279.23 -591.24
800.75 -307.75 -587.85
586.25 -360.23 -574.25
511.75 -322.75 -625.43
644.25 -278.46 -589.74
905.25 -263.91 -529.25
918.25 -321.25 -570
443.25 -342.25 -551.24
847.25 -268.45 -519.26
963.74 -337.75 -473.42
372.74 -324.76 -559.8
496.25 -318.75 -537.88
394.73 -285.26 -638.87
922.75 -336.24 -489.91
904.75 -298.75 -573.23
916.75 -319.24 -483.44
601.25 -293.25 -607.82
713.25 -353.78 -571.75
468.75 -288.27 -619.12
613.75 -359.61 -570.25
674.25 -357.84 -564.75
551.75 -357.38 -593.75
759.75 -339.27 -513.25
378.77 -344.4 -622.72
804.75 -354.85 -539.25
904.25 -318.75 -485.24
849.75 -338.25 -570.83
851.25 -342.16 -566.75
909.75 -301.75 -483.81
548.75 -356.95 -595.25
531.75 -320.25 -622.93
666.75 -346.24 -529.76
673.75 -349.91 -585.76
315.24 -261.75 -575.85
421.75 -313.25 -637.34
873.75 -344.56 -506.75
875.26 -325.73 -491.8
1034.8 -342.85 -474.23
933.76 -357.21 -522.25
856.25 -353.68 -535.75
582.25 -310.25 -527.02
504.25 -322.75 -626.46
686.25 -312.75 -602.82
982.25 -344.75 -558.58
565.75 -318.25 -618.56
482.25 -315.75 -539.83
568.25 -328.75 -530.35
917.25 -272.61 -553.25
911.75 -274.13 -500.25
438.25 -303.25 -632.11
356.25 -292.76 -652.71
505.75 -325.25 -625.91
717.75 -320.75 -598.03
557.25 -344.26 -539.73
418.75 -359.67 -576.75
673.25 -355.12 -543.26
661.75 -306.75 -605.38
778.25 -333.75 -507.34
759.25 -280.27 -516.58
658.25 -336.75 -523.05
418.25 -352.16 -563.26
643.75 -358.27 -571.25
911.25 -346.99 -548.74
865.75 -344.71 -507.74
955.76 -309.74 -565.98
666.25 -342.23 -595.29
896.75 -271.73 -556.24
674.25 -334.74 -520.05
736.75 -327.25 -593.67
737.75 -281.25 -583.43
761.25 -287.26 -510.62
818.25 -266.95 -529.75
611.75 -316.75 -612.56
340.25 -291.25 -652.83
696.75 -290.25 -518.16
836.75 -272.48 -513.75
667.25 -356.34 -573.75
737.25 -283.77 -585.77
323.23 -294.78 -645.54
837.75 -307.75 -493.34
788.75 -343.89 -574.72
847.75 -348.24 -558.75
745.75 -351.26 -529.24
705.25 -320.75 -599.73
358.25 -341.39 -601.75
781.25 -267.4 -536.75
1033.8 -350.25 -541.02
647.25 -337.76 -524.92
722.75 -297.24 -595.26
1046.7 -361.25 -536.39
933.25 -268.2 -513.25
894.75 -293.75 -488.42
1015.2 -337.75 -548.51
1080.7 -371.25 -494.75
834.75 -268.06 -554.26
949.75 -366.03 -524.75
765.25 -326.25 -505.35
992.75 -352.26 -555.81
624.25 -315.75 -521.2
800.25 -279.14 -574.74
872.25 -295.76 -490.81
860.75 -265.36 -543.76
813.75 -311.25 -496.43
474.75 -356.98 -562.75
938.25 -313.25 -478.73
675.75 -358.1 -558.25
416.75 -324.25 -547.87
953.25 -297.25 -563.18
919.75 -283.74 -563.75
872.25 -290.75 -574.59
775.25 -269.27 -561.25
642.75 -357.22 -551.24
522.25 -359.51 -564.75
843.25 -281.75 -572.45
385.75 -252.97 -596.75
374.75 -307.25 -646.79
710.25 -318.75 -510.36
957.75 -324.75 -565.37
936.25 -281.76 -558.68
468.75 -318.75 -541.55
348.76 -280.26 -563.6
540.25 -336.75 -617.4
885.75 -263.87 -533.75
583.25 -357.79 -586.74
952.75 -339.74 -560.35
423.25 -289.76 -627.91
422.25 -331.75 -548.69
623.25 -305.25 -522.38
501.25 -291.25 -617.99
765.75 -311.25 -592.48
740.25 -267.91 -556.25
415.75 -345.76 -557.51
970.25 -328.25 -471.83
328.25 -273.25 -571.53
456.25 -317.75 -632.9
1008.8 -327.25 -474.44
689.25 -269.4 -550.26
691.25 -328.75 -515.26
772.75 -267.95 -536.25
829.25 -326.74 -497.71
933.75 -267.86 -514.75
802.75 -346.45 -569.25
712.75 -355.07 -568.25
924.75 -350.01 -505.75
950.25 -316.25 -476.47
904.75 -279.26 -563.67
788.75 -296.25 -586.87
847.75 -351.36 -551.75
887.75 -267.61 -549.75
587.25 -357.3 -554.74
545.75 -348.26 -608.26
484.75 -326.25 -628.53
280.5 -260.75 -599.75
912.75 -269.66 -549.26
400.75 -349.78 -566.75
974.24 -345.75 -470.82
740.25 -268.29 -542.75
860.75 -309.25 -580.05
725.25 -346.3 -523.75
885.25 -333.76 -568.99
912.25 -264.45 -531.75
667.25 -339.24 -597.43
951.75 -285.75 -490.22
930.73 -272.36 -549.22
382.76 -269.44 -570.74
745.25 -344.59 -519.76
629.75 -355.05 -546.25
975.31 -359.86 -549.23
741.25 -288.75 -588.91
789.25 -294.25 -586.05
890.75 -295.74 -574.21
428.25 -339.76 -551.15
732.75 -352.84 -570.24
571.25 -291.76 -610.33
387.32 -253.14 -600.73
776.25 -352.75 -530.26
651.75 -357.55 -552.25
657.75 -303.26 -605.14
856.25 -335.75 -571.85
620.25 -347.18 -597.75
595.75 -300.76 -612.01
716.25 -270.35 -567.75
683.25 -337.76 -596.11
1059.5 -359.73 -523.27
831.75 -307.75 -583.78
741.75 -309.25 -505.89
707.75 -306.75 -599.57
938.75 -281.1 -493.24
493.25 -311.25 -538.79
571.25 -309.75 -528.58
499.75 -309.75 -626.42
643.75 -349.51 -591.22
869.25 -285.26 -572.03
927.75 -353.57 -535.75
832.25 -292.25 -497.7
504.75 -346.23 -547.09
769.75 -270.92 -528.25
644.75 -346.36 -594.75
826.75 -345.44 -566.74
659.75 -358.14 -555.75
630.75 -347.04 -596.24
624.25 -313.25 -610.88
936.75 -289.26 -563.73
768.75 -280.25 -515.19
944.75 -353.1 -547.24
947.25 -327.75 -477.62
410.75 -306.75 -549.61
636.75 -352.73 -541.26
359.75 -342.01 -604.75
820.75 -278.36 -571.76
975.24 -335.74 -471.38
770.75 -349.04 -570.73
920.25 -312.75 -571.29
781.75 -301.75 -501.61
944.75 -361.76 -529.75
276.76 -253.24 -598
504.25 -330.75 -538.8
356.27 -338.08 -614.24
480.25 -319.75 -629.78
621.75 -340.24 -529.45
698.75 -272.17 -538.76
510.25 -310.75 -625.25
946.74 -351.26 -489.02
961.74 -359.98 -547.27
528.75 -332.75 -536.47
732.75 -338.25 -588.41
867.75 -325.26 -576.08
574.25 -358.91 -560.25
771.75 -317.75 -591.26
602.75 -319.25 -613.64
989.75 -333.75 -469.07
424.25 -306.75 -548.14
689.75 -356.25 -545.75
626.25 -357.44 -552.75
522.75 -352.51 -551.74
827.75 -266.31 -530.25
718.25 -311.75 -598.67
811.74 -268.85 -557.67
402.75 -355.38 -575.25
415.75 -334.24 -550.68
639.75 -280.9 -593.26
475.75 -320.25 -630.35
461.75 -347.24 -552.64
660.75 -284.24 -594.56
945.74 -356.83 -542.27
891.75 -280.75 -496.04
652.75 -339.75 -599.19
642.25 -358.95 -564.25
787.25 -351.44 -526.25
801.25 -292.76 -583.96
709.25 -350.6 -531.25
586.75 -302.24 -613.6
744.25 -296.25 -592.29
273.25 -264.03 -625.25
345.25 -287.25 -654.68
782.75 -342.6 -513.77
1062.8 -355.24 -488.25
947.73 -362.93 -531.26
261.75 -252.36 -631.25
966.25 -316.75 -564.42
926.75 -270.64 -505.74
802.25 -273.29 -567.25
450.25 -320.75 -543.98
686.75 -342.24 -523.76
373.24 -293.75 -649.12
380.26 -351.3 -589.25
402.75 -357.49 -607.25
811.24 -275.91 -513.22
575.75 -320.25 -617.13
329.25 -258.75 -571.98
641.25 -358.81 -567.75
855.25 -265.21 -542.75
750.75 -352.43 -531.24
914.25 -280.25 -561.94
694.75 -342.24 -522.87
267.11 -249.25 -606.25
788.25 -290.76 -504.65
753.75 -296.76 -506.83
853.75 -267.19 -550.75
742.75 -282.76 -516.83
919.75 -265.91 -537.75
516.25 -351.17 -609.75
288.24 -269.02 -647.26
624.75 -293.75 -605.33
867.25 -348.77 -554.27
549.25 -346.76 -542.75
735.75 -333.75 -590.86
393.73 -300.26 -643.09
588.75 -335.26 -611.23
523.75 -350.52 -549.24
839.75 -292.25 -579.12
492.25 -308.75 -627.18
698.25 -353.92 -574.25
569.75 -345.75 -606.96
300.26 -284.36 -638.74
551.75 -288.25 -609.92
716.25 -356.27 -562.75
532.75 -311.25 -622.43
542.25 -329.26 -620.01
813.75 -269.06 -524.26
581.75 -360.4 -569.75
667.25 -313.75 -605.33
1054.7 -358.26 -527.73
1055.8 -367.24 -532.31
848.3 -295.62 -579.37
714.25 -278.43 -582.76
924.75 -278.75 -494.83
872.25 -347.09 -510.75
641.75 -337.75 -525.52
510.75 -361.54 -588.75
830.75 -318.25 -583.23
997.67 -338.91 -554.31
536.25 -349.68 -608.25
778.25 -354.81 -554.25
478.75 -317.25 -629.97
762.25 -267.23 -543.75
558.25 -354.76 -597.77
770.25 -308.25 -502.19
619.75 -301.25 -609.22
601.25 -351.46 -542.75
594.75 -334.25 -610.83
714.75 -355.13 -540.75
697.25 -330.75 -515.33
933.75 -282.75 -491.46
957.06 -358.82 -486.82
706.75 -300.25 -512.25
935.74 -353.9 -502.74
965.25 -365.42 -543.75
503.75 -338.26 -541.95
1031.8 -347.75 -541.45
665.75 -358.29 -563.25
462.75 -335.25 -545.48
681.75 -325.25 -601.89
926.25 -354.48 -525.75
603.25 -331.26 -610.94
857.75 -267.62 -519.25
881.25 -336.75 -567.32
607.25 -297.76 -609.4
632.25 -299.25 -522.92
715.25 -320.25 -598.47
957.75 -272.49 -525.25
936.74 -358.56 -518.75
830.75 -265.29 -539.25
363.25 -260.25 -571.95
983.75 -332.75 -560.27
862.75 -297.75 -491.53
679.25 -334.25 -519.17
540.25 -313.25 -532.27
695.25 -339.27 -593.27
712.75 -291.24 -515.24
847.25 -296.24 -494.08
740.75 -283.24 -516.7
406.75 -360.23 -595.75
453.25 -305.74 -631.18
893.25 -272.62 -504.25
690.75 -282.07 -589.24
385.79 -251.99 -600.24
816.75 -308.75 -585.82
393.25 -350.47 -572.25
446.75 -291.27 -624.18
556.25 -314.25 -530.12
813.75 -354.75 -540.75
605.75 -346.98 -600.25
644.75 -353.39 -541.75
407.75 -324.75 -549.49
917.75 -266.24 -539.75
927.75 -282.75 -561.55
420.75 -346.26 -626.82
486.75 -289.23 -618
326.25 -285.26 -653.37
723.75 -332.77 -513.13
831.25 -351.11 -522.24
402.75 -349.97 -622.26
407.25 -344.74 -628.22
761.75 -293.75 -589.14
621.75 -306.25 -522.36
687.75 -316.25 -602.57
823.75 -280.76 -573.75
379.26 -350.29 -609.25
595.25 -308.75 -525.46
536.75 -336.26 -537.02
562.75 -360.87 -576.25
471.25 -335.25 -544.43
547.25 -350.35 -605.75
802.25 -322.75 -499.64
864.75 -266.39 -547.75
732.25 -300.75 -595.22
500.25 -310.25 -626.45
758.75 -315.75 -503.8
801.75 -329.74 -583.52
1066.8 -358.68 -488.75
452.76 -298.2 -628.05
946.75 -271.63 -509.75
643.25 -358.92 -564.25
688.75 -312.25 -602.5
408.25 -315.25 -548.79
711.25 -309.25 -509.93
1056.8 -362.75 -528.86
900.75 -338.75 -562.53
694.75 -295.25 -597.84
737.75 -280.75 -582.94
619.75 -332.26 -608.19
868.25 -265.99 -546.25
898.25 -352.64 -530.25
839.25 -308.75 -493.11
886.25 -345.8 -556.25
869.25 -320.75 -490.8
717.25 -354.25 -569.74
973.75 -288.49 -547.75
880.25 -353.09 -532.25
779.75 -333.24 -506.84
426.75 -336.75 -632.44
402.26 -359.15 -596.75
893.25 -284.77 -568.96
648.75 -335.74 -602.32
761.75 -333.24 -508.94
939.75 -293.26 -484.19
774.75 -318.75 -590.74
1078 -368.75 -498.75
394.75 -262.6 -591.25
444.25 -355.5 -563.26
523.75 -360.98 -588.25
574.25 -318.75 -617.43
901.25 -263.4 -530.25
347.75 -294.25 -652.25
523.25 -341.26 -617.29
929.75 -267.64 -513.75
749.25 -288.26 -587.69
601.25 -358.05 -582.25
860.25 -338.24 -569.23
566.25 -332.26 -615.7
469.75 -288.25 -619
750.25 -306.75 -504.98
603.25 -337.24 -608.14
887.75 -264.24 -525.25
798.25 -266.21 -540.75
719.75 -272.2 -572.25
723.25 -268.21 -548.75
381.24 -343.02 -625.77
1031.8 -361.25 -544.99
659.75 -355.09 -578.75
808.25 -284.23 -578.23
724.25 -285.25 -517.58
804.75 -354.94 -541.25
763.75 -267.38 -541.75
412.76 -289.28 -631.78
927.25 -275.08 -554.25
836.75 -349.53 -518.26
492.25 -294.25 -621.1
800.75 -354.69 -548.75
870.75 -273.02 -507.25
734.75 -268.78 -561.25
657.75 -356.97 -549.75
708.75 -356.96 -549.22
505.25 -359.69 -566.25
679.75 -346.57 -528.75
845.75 -282.24 -501.67
894.75 -266.4 -515.25
615.75 -319.75 -611.87
371.75 -348.39 -599.75
845.75 -316.25 -492.74
555.75 -290.25 -611.04
833.75 -344.63 -510.78
364.75 -300.75 -649.34
993.75 -355.75 -554.91
352.74 -318.27 -639.34
774.75 -352.23 -563.74
937.73 -358.84 -526.25
734.75 -313.75 -596.47
825.25 -286.74 -577.97
774.25 -311.25 -591.38
676.25 -287.25 -595.31
838.75 -285.25 -500.56
532.25 -356.44 -599.26
697.75 -354.96 -541.25
820.75 -353.88 -548.25
527.75 -315.25 -533.79
854.75 -308.75 -580.84
403.25 -313.25 -549.65
796.75 -355.09 -545.75
944.76 -360.67 -533.24
791.75 -278.3 -574.75
552.75 -307.75 -619.28
555.25 -351.09 -546.76
809.75 -289.25 -502.35
780.19 -293.59 -504.43
320.75 -252.25 -574.54
368.25 -333.59 -631.75
339.75 -302.75 -646.47
669.25 -308.75 -515.61
740.75 -338.24 -587.24
895.25 -338.35 -563.78
593.25 -308.25 -525.82
925.25 -283.75 -490.63
635.75 -317.25 -519.74
782.75 -274.41 -570.76
723.75 -310.25 -597.87
816.25 -347.64 -516.75
792.75 -305.25 -499.49
568.75 -352.07 -546.73
919.75 -349.42 -508.26
677.75 -330.75 -517.69
954.25 -271.36 -521.25
361.75 -341.32 -613.25
414.25 -327.25 -637.18
411.75 -354.19 -568.25
615.25 -344.76 -533.77
988.25 -326.25 -558.96
699.75 -298.26 -598.44
777.25 -285.75 -582.82
903.75 -329.24 -489.68
783.75 -352.34 -561.75
623.75 -343.25 -531.51
710.75 -271.65 -537.73
809.25 -273.73 -567.25
818.75 -300.75 -584.42
778.25 -309.25 -590.82
619.25 -359.54 -567.25
1080.2 -370.74 -494.75
523.25 -334.75 -620.72
769.25 -270.97 -528.24
710.75 -268.62 -559.75
927.25 -346.41 -551.24
553.75 -358.41 -590.75
835.25 -343.08 -568.26
705.75 -318.75 -599.97
563.25 -360.26 -581.75
605.75 -321.25 -613.03
1024.3 -349.75 -546.5
919.25 -326.25 -568.12
933.07 -356.31 -514.2
369.25 -346.71 -592.25
264.61 -251.25 -613.25
768.25 -275.54 -520.76
819.75 -348.2 -563.74
423.75 -356.58 -568.25
914.75 -277.86 -559.75
1018.8 -353.75 -549.54
430.25 -348.24 -556.74
738.25 -269.06 -539.74
629.75 -358.21 -575.25
772.75 -274.47 -571.75
795.25 -267.54 -532.75
895.75 -277.75 -563.27
386.95 -256.26 -624.74
630.25 -342.74 -600.32
866.75 -350.14 -551.26
445.25 -313.75 -544.93
856.25 -264.75 -538.75
507.75 -297.75 -621.26
376.24 -343.19 -623.26
789.75 -266.91 -537.25
895.25 -316.75 -574.78
782.25 -267.09 -538.25
934.72 -357.53 -518.24
563.75 -350.21 -603.26
1019.3 -360.75 -549.65
392.26 -356.25 -592.75
600.25 -317.25 -524.35
655.25 -343.26 -528.1
535.75 -306.75 -533.91
879.75 -309.25 -577.58
881.25 -265.41 -521.25
791.75 -267.15 -552.75
742.25 -303.25 -594.59
925.25 -305.25 -481.46
775.75 -301.75 -590.08
557.25 -358.27 -559.26
731.25 -330.74 -511.24
725.25 -298.75 -595.48
492.75 -301.25 -624.73
466.75 -338.76 -546.57
758.75 -332.25 -588.37
918.25 -320.25 -570.28
889.82 -339.1 -498.87
401.25 -342.24 -558.87
774.25 -322.25 -590.05
713.25 -336.25 -592.7
844.75 -342.59 -567.28
855.25 -333.25 -498.05
931.75 -315.25 -569.67
511.25 -353.93 -554.75
526.75 -358.09 -560.75
471.75 -331.25 -542.96
859.25 -353.45 -539.25
302.25 -246.25 -580.03
501.25 -331.25 -625.08
453.25 -353.46 -559.74
958.76 -348.25 -478.49
358.25 -317.75 -641.57
829.75 -347.81 -515.74
729.25 -349.54 -527.74
405.75 -325.26 -638.7
926.75 -272.78 -551.24
837.75 -309.75 -583.07
553.75 -359.36 -562.75
751.75 -309.25 -594.22
592.75 -351.23 -543.25
861.25 -352.71 -526.25
743.75 -337.75 -587.15
665.75 -295.75 -601.54
520.25 -358.84 -596.26
740.75 -295.25 -592.3
910.25 -268.75 -547.75
301.25 -282.29 -642.75
856.75 -341.91 -505.24
938.25 -267.57 -530.25
607.75 -322.75 -523.99
271.6 -262.26 -623.75
427.75 -340.75 -630.24
734.75 -347.07 -523.73
487.75 -333.26 -626.24
382.75 -303.75 -646.01
565.25 -312.25 -529.08
915.25 -341.81 -556.73
469.25 -342.25 -624.46
607.75 -358.37 -579.75
494.75 -359.99 -567.75
888.25 -273.76 -559.78
944.75 -272.39 -506.75
1056.2 -357.46 -474.75
408.75 -323.75 -549.13
803.75 -305.25 -587.2
873.25 -320.76 -576.82
559.75 -301.25 -616.54
865.75 -265.44 -524.76
657.75 -356.5 -575.25
906.25 -304.75 -573.95
796.75 -271.81 -565.25
995.75 -329.25 -470.79
565.25 -304.75 -530.41
767.25 -352.59 -564.24
387.85 -265.76 -632.24
887.25 -274.91 -561.24
914.25 -344.49 -501.76
771.25 -273.2 -523.75
828.25 -284.74 -502.45
869.25 -282.75 -497.8
289.75 -273.44 -642.75
276.26 -263.4 -640.74
508.75 -324.25 -536.73
713.25 -353.36 -572.76
338.64 -312.2 -636.56
493.25 -359.78 -567.25
987.25 -317.25 -557.89
392.24 -260.3 -593.75
928.75 -280.74 -559.72
847.25 -338.75 -570.77
876.24 -328.73 -573.33
721.25 -335.75 -591.83
609.75 -349.53 -596.76
845.25 -272.49 -512.25
939.27 -358.69 -509.76
435.75 -338.25 -630.75
401.25 -327.26 -638.52
825.25 -338.38 -505.26
643.25 -300.75 -520.85
954.25 -299.25 -480.71
634.75 -356.24 -548.75
539.25 -312.75 -532.44
383.74 -339.26 -563.87
684.75 -289.76 -520.2
828.75 -291.25 -498.63
1011.4 -340.72 -551.1
375.25 -306.25 -646.96
623.25 -335.75 -526.55
648.25 -354.31 -543.26
828.75 -265.81 -532.75
854.75 -272.84 -561.74
505.75 -361.49 -590.25
820.25 -354.59 -539.75
788.25 -282.74 -509.92
958.76 -362.17 -543.24
919.25 -294.25 -569.04
978.75 -331.75 -561.35
360.25 -281.75 -561.7
469.75 -359.79 -568.76
626.75 -275.37 -586.24
857.75 -314.75 -491.04
536.25 -346.74 -611.17
678.25 -338.26 -521.69
300.23 -261.76 -583.25
713.75 -326.75 -511.8
645.25 -319.75 -518.76
637.25 -313.25 -609.18
365.25 -288.25 -652.17
846.75 -304.25 -492.44
419.25 -322.25 -547.26
399.24 -330.76 -553.08
457.25 -304.25 -630.19
669.75 -313.25 -515.24
895.25 -293.76 -488.35
593.75 -328.25 -613.23
387.69 -354.1 -605.28
1013.2 -332.76 -472.36
709.75 -329.75 -596.54
388.79 -274.73 -637.73
810.75 -354.61 -537.25
802.25 -320.75 -499.12
753.25 -317.75 -593.73
708.25 -301.75 -511.62
489.25 -329.25 -627.28
878.75 -350.78 -547.25
767.25 -341.77 -580.25
992.75 -324.75 -472.36
645.75 -317.25 -518.46
901.25 -350.03 -544.76
740.25 -278.96 -580.75
1081.9 -372.75 -498.75
427.75 -324.25 -546.29
693.25 -275.23 -580.25
530.25 -283.76 -607.75
970.25 -296.25 -484.15
757.75 -286.26 -511.8
844.75 -341.21 -505.75
709.75 -346.58 -584.24
761.75 -308.75 -592.9
935.76 -357.53 -529.25
985.25 -355.28 -555.74
544.75 -352.66 -603.24
753.76 -275.11 -523.79
764.75 -321.75 -591.48
917.75 -288.25 -488.02
502.75 -312.25 -626.46
615.25 -337.75 -606.06
634.75 -358.93 -560.25
842.75 -333.27 -499.51
406.75 -348.99 -563.25
818.75 -300.25 -584.31
562.25 -323.75 -618.51
801.75 -310.75 -587.85
390.76 -330.73 -555.52
881.25 -316.25 -576.76
546.25 -333.26 -534.54
529.25 -324.75 -622.79
936.75 -274.54 -500.74
826.25 -349.52 -560.25
716.75 -351.86 -532.75
819.75 -354.09 -547.25
983.75 -318.75 -559.57
935.75 -358.09 -520.75
580.25 -352.77 -597.25
359.25 -339.18 -585.75
761.25 -348.12 -573.73
521.25 -334.25 -621.22
465.25 -327.25 -631
788.75 -282.25 -510.25
343.75 -250.25 -573.61
525.75 -359.52 -593.25
654.25 -292.25 -601.1
939.25 -333.24 -563.62
776.25 -349.94 -568.26
996.25 -336.25 -556.89
1041.8 -349.23 -472.64
963.25 -324.25 -564.76
902.6 -340.88 -499.29
910.75 -322.24 -485.36
738.75 -267.78 -554.75
635.25 -315.25 -519.73
414.25 -350.29 -562.24
496.25 -325.25 -538.51
958.75 -316.75 -565.94
753.25 -354.6 -537.25
915.25 -285.75 -565.67
672.25 -303.25 -603.36
710.25 -355.51 -542.25
885.75 -352.81 -528.25
829.75 -342.06 -570.27
999.25 -333.75 -469.28
804.26 -353.51 -553.78
921.25 -264.92 -524.75
688.75 -281.37 -588.75
498.75 -300.25 -623.55
621.76 -326.76 -609.78
511.75 -344.25 -616.94
937.75 -356.63 -506.25
782.25 -275.3 -518.78
1009.7 -357.75 -552.3
455.24 -308.26 -631.67
732.75 -331.24 -511.3
403.75 -341.76 -557.72
459.25 -308.25 -544.06
356.25 -270.25 -566.82
696.25 -356.9 -564.75
375.75 -312.75 -555.49
358.25 -291.24 -652.9
748.25 -354.08 -535.74
953.25 -311.75 -476.66
768.75 -355.02 -538.75
377.26 -342.57 -624.74
776.25 -343.85 -515.77
689.25 -284.24 -591.43
1017.3 -329.74 -475.99
1021.3 -359.75 -548.97
918.75 -338.74 -559.83
658.25 -354.67 -543.25
809.75 -313.75 -586.66
1066.3 -360 -483.75
743.75 -306.75 -594.99
695.25 -356.4 -546.25
406.75 -331.24 -636.58
639.75 -272.22 -577.75
823.25 -351.13 -557.25
872.75 -353.07 -529.25
826.75 -304.25 -495.1
400.25 -351.06 -620.25
731.75 -355.67 -561.74
773.75 -316.75 -591.13
768.25 -339.76 -581.91
895.25 -333.76 -567.49
723.75 -355.4 -541.25
710.75 -344.46 -523.24
843.25 -353.93 -534.25
945.75 -268.96 -523.75
954.75 -354.86 -549.25
264.78 -245.72 -605.78
852.25 -352.43 -525.25
780.75 -318.25 -501.34
833.75 -296.25 -581.35
443.75 -296.75 -628.32
606.25 -296.74 -609.06
711.75 -280.4 -585.26
956.24 -278.18 -545.74
932.75 -291.25 -565.59
469.25 -327.25 -542.32
865.25 -266.72 -548.75
512.25 -330.75 -623.71
545.75 -342.76 -539.85
834.75 -270.83 -560.24
362.74 -342.24 -588.25
355.75 -290.75 -653.23
898.75 -349.86 -545.75
745.25 -293.26 -590.9
768.75 -355.32 -553.75
890.75 -313.75 -575.84
337.25 -310.25 -639.66
437.25 -320.75 -545.69
842.75 -353.61 -531.25
858.75 -339.76 -568.04
951.75 -327.75 -565.3
783.25 -303.25 -501.1
891.25 -268.17 -511.76
487.75 -337.76 -624.34
976.75 -341.75 -469.99
738.75 -286.74 -587.86
772.25 -316.25 -591.38
603.25 -331.25 -526.9
722.25 -348.47 -579.77
1011.8 -354.25 -551.91
793.75 -314.75 -588.68
603.25 -357.09 -584.74
956.25 -319.25 -475.23
765.75 -291.25 -587.49
980.75 -347.75 -468.71
890.75 -290.25 -490.36
528.25 -320.25 -533.8
582.75 -305.75 -615.1
884.75 -310.25 -576.93
766.75 -355.17 -555.25
430.25 -338.75 -631.09
685.75 -318.75 -513.5
597.25 -358.16 -582.76
764.25 -282.25 -513.99
373.76 -249.02 -586.73
907.25 -269.33 -507.76
655.25 -276.79 -586.25
680.75 -353.85 -539.75
602.75 -359.43 -575.75
837.75 -349.95 -557.24
881.25 -352.96 -535.75
301.23 -253.75 -581.03
513.25 -360.76 -591.75
887.25 -273.26 -559.25
851.25 -344.42 -508.77
958.75 -313.25 -565.77
719.25 -284.25 -519.1
854.75 -353.47 -531.25
465.25 -336.75 -627.97
332.75 -271.25 -570.09
705.75 -345.41 -524.76
693.25 -290.25 -595.39
802.25 -278.47 -511.76
723.25 -347.99 -580.26
799.25 -307.75 -588.04
469.75 -313.25 -630.79
647.25 -304.75 -606.8
724.25 -268.21 -557.25
846.25 -282.25 -501.59
618.25 -349.76 -538.76
938.75 -346.1 -553.74
743.25 -267.69 -554.25
777.75 -313.25 -590.91
973.75 -295.26 -553.95
531.75 -332.24 -620.53
970.25 -289.17 -550.75
409.75 -329.25 -637.06
627.25 -338.74 -527.83
491.75 -332.25 -626.04
358.25 -323.26 -637.48
948.25 -347.74 -554.15
830.25 -272.37 -563.25
576.25 -306.25 -528.55
764.25 -269.5 -532.76
849.75 -311.75 -491.76
775.24 -324.26 -503.46
449.25 -347.25 -554.02
525.25 -355.78 -601.75
407.25 -313.75 -549.02
733.75 -355.31 -562.75
317.75 -258.25 -574.92
908.25 -266.06 -515.76
717.25 -357.09 -555.25
968.75 -308.75 -562.43
638.25 -315.75 -519.35
838.75 -318.25 -493.98
363.75 -303.25 -648.7
409.25 -331.25 -550.87
952.26 -354.88 -548.24
880.25 -275.51 -502.74
951.69 -278.31 -498.72
442.75 -340.25 -629.34
880.75 -348.78 -513.24
919.75 -347.02 -549.25
957.75 -273.33 -531.75
565.75 -351.94 -600.75
891.75 -288.26 -491.19
543.25 -328.75 -533.39
534.75 -339.25 -616.86
644.75 -328.75 -605.92
851.25 -289.24 -496.38
909.75 -288.25 -568.9
878.25 -341.44 -563.24
907.25 -319.25 -484.97
967.25 -338.75 -560.98
421.25 -334.25 -549.71
661.75 -358.06 -567.25
577.25 -349.24 -602.25
912.75 -305.75 -482.96
784.25 -333.75 -583.86
797.25 -266.69 -550.25
954.22 -279.08 -498.44
854.25 -280.76 -501.56
899.25 -263.83 -535.75
271.76 -256.47 -646.74
571.25 -343.75 -537.77
573.25 -310.75 -617.2
703.26 -356.46 -546.23
479.25 -360.21 -569.25
602.75 -313.25 -524.03
401.26 -284.24 -634.6
741.75 -354.97 -562.26
912.75 -282.23 -492.28
789.25 -292.25 -585.18
967.74 -294.76 -556.57
741.25 -327.25 -593.05
336.75 -299.75 -647.45
948.25 -349.78 -552.25
992.25 -322.25 -556.89
922.75 -353.47 -528.25
837.75 -331.75 -499.19
727.25 -285.25 -588.03
542.25 -348.73 -545.42
532.75 -316.25 -533.11
728.25 -298.25 -509.88
400.76 -273.99 -626.26
828.75 -300.75 -583.19
736.75 -355.24 -540.25
909.71 -280.44 -562.57
707.73 -273.71 -576.29
611.25 -309.25 -612.19
1060.7 -360.24 -522.26
383.25 -319.25 -642.61
806.75 -308.75 -497.37
366.75 -312.25 -645.6
756.75 -350.15 -526.26
637.75 -290.24 -601.74
543.8 -298.59 -617.39
459.75 -308.25 -543.99
828.75 -349.69 -519.24
872.25 -308.25 -488.8
821.25 -297.75 -497.22
563.75 -311.25 -529.38
856.25 -332.76 -497.65
365.76 -250.73 -579.42
395.26 -354.79 -610.74
585.25 -310.75 -526.55
439.26 -345.25 -626.05
751.25 -273.17 -527.28
721.75 -272.75 -533.26
953.71 -285.81 -490.46
719.75 -331.25 -594.44
463.75 -319.25 -631.97
574.25 -332.75 -531.02
303.24 -254.75 -580.23
820.25 -298.75 -583.75
785.25 -308.75 -500.2
461.75 -336.26 -546.01
500.25 -357.05 -560.75
729.75 -324.75 -595.47
738.75 -296.24 -509.18
648.75 -297.26 -604.23
394.75 -355.82 -606.75
792.75 -312.25 -499.19
1000.8 -324.25 -553.3
848.75 -290.25 -496.23
936.26 -355.8 -536.74
425.25 -354.18 -564.25
920.75 -351.43 -513.25
779.75 -267.91 -534.75
822.75 -321.25 -583.64
386.76 -257.78 -589.75
744.75 -345.56 -579.76
374.25 -301.25 -648.02
502.75 -362.23 -577.75
503.25 -355.64 -605.76
625.75 -357.54 -578.75
760.75 -329.25 -507.09
865.75 -265.14 -526.25
346.14 -306.51 -643.74
633.25 -359.14 -567.25
798.25 -352.53 -528.25
513.25 -311.75 -536.04
430.25 -343.25 -628.43
310.75 -249.75 -577.24
887.25 -287.74 -571.35
674.75 -357.93 -563.75
509.25 -309.25 -625.11
945.27 -334.23 -480.02
389.75 -300.75 -644.32
1069.8 -360.55 -493.25
335.25 -285.24 -654.95
549.25 -359.31 -562.75
290.26 -274.49 -641.74
829.75 -298.25 -495.9
406.75 -360.17 -596.75
708.75 -337.25 -592.7
400.75 -332.75 -636.24
509.25 -344.75 -545.4
409.25 -315.25 -639.75
842.25 -298.25 -580.9
672.25 -357.57 -552.25
948.25 -299.76 -480.56
482.75 -342.76 -546.99
959.75 -274.75 -510.75
606.75 -299.25 -610.09
676.75 -273.88 -579.25
