523.431 -81.562 -251.611
464.043 -62.5685 -257.728
709.358 273.157 -337.576
99.1592 27.2426 -300.41
601.607 115.909 -386.446
598.235 11.4037 -258.931
565.99 10.1742 -281.358
611.01 93.8454 -332.22
527.685 -77.3848 -256.6
469.019 -102.972 -249.234
623.566 126.143 -332.994
598.588 112.726 -335.071
611.055 129.756 -313.767
588.821 126.174 -368.056
674.467 195.992 -408.881
592.478 -1.89494 -254.076
149.857 30.8144 -209.35
468.154 -86.906 -267.13
500.242 -83.4389 -263.996
596.132 107.138 -337.35
600.121 130.829 -387.759
492.254 -61.4361 -253.196
456.492 -88.496 -259.397
186.065 38.7328 -190.835
553.643 -61.8383 -269.826
555.705 -55.2095 -272.98
160.064 36.8002 -179.16
583.4 11.1415 -288.127
157.645 35.4553 -205.335
590.891 -3.53292 -290.483
727.512 272.588 -344.638
591.656 113.642 -376.443
563.763 5.24558 -277.823
601.003 91.2541 -340.21
630.548 127.976 -388.128
601.213 102.78 -321.32
599.959 141.909 -383.84
630.048 111.209 -352.571
683.15 206.969 -419.602
523.137 -75.7788 -260.429
580.301 -13.3695 -263.833
685.471 212.336 -406.937
579.442 18.2564 -284.118
462.315 -71.3528 -264.32
575.85 10.2458 -252.353
631.838 125.907 -313.655
476.965 -69.9666 -228.742
658.283 208.35 -405.323
562.457 3.67551 -280.838
593.097 103.558 -346.083
543.581 -79.9846 -259.908
174.443 34.4365 -189.187
638.238 132.646 -377.209
123.469 24.5998 -288.349
121.217 16.3191 -307.012
154.072 33.5455 -190.679
605.712 135.755 -389.462
589.059 129.635 -362.806
627.419 105.126 -374.72
727.171 246.13 -337.022
591.798 11.036 -286.334
670.809 230.731 -414.451
517.87 -98.1075 -269.907
583.91 18.7426 -256.354
625.355 129.624 -312.521
719.008 245.561 -334.246
490.43 -104.375 -236.313
616.24 124.119 -342.077
533.509 -79.2383 -255.985
597.973 143.864 -384.307
628.888 101.134 -332.384
601.805 118.855 -315.236
204.434 23.9012 -175.541
631.877 128.292 -354.811
633.859 123.82 -313.72
467.235 -61.2379 -253.787
594.902 -9.76136 -273.654
604.903 96.5258 -329.546
481.193 -108.981 -249.444
609.271 95.4761 -324.163
577.048 13.005 -267.168
627.862 111.401 -338.62
161.673 37.7426 -177.294
159.67 34.1743 -198.358
626.647 119.232 -336.234
599.059 2.46722 -259.427
562.854 -50.2715 -279.568
615.626 126.141 -333.882
471.394 -91.7316 -226.165
517.821 -100.589 -261.325
610.439 88.4934 -341.43
559.256 -8.04698 -288.997
470.191 -104.923 -242.82
686.327 233.871 -419.261
637.223 141.143 -365.664
630.191 112.587 -335.561
633.069 140.101 -359.154
504.172 -82.1585 -233.541
550.389 -56.6829 -271.222
512.047 -78.8585 -251.925
160.752 54.4927 -201.366
531.52 -86.7117 -280.939
557.935 -50.5368 -275.51
603.014 100.112 -321.19
459.056 -75.0224 -264.043
672.321 208.48 -402.853
565.777 -22.2167 -288.245
492.74 -81.8286 -269.515
635.555 118.89 -361.082
478.712 -72.5406 -270.07
677.727 206.446 -405.364
631.21 146.155 -360.729
614.487 118.337 -301.542
479.14 -92.1886 -224.978
467.498 -103.689 -242.495
636.803 114.37 -364.899
631.454 117.251 -379.448
594.808 135.863 -358.239
476.003 -68.4443 -228.996
732.607 264.693 -349.848
170.28 46.5764 -198.533
93.0752 18.7773 -296.596
589.227 118.813 -356.334
474.82 -87.8876 -224.365
587.681 -14.5726 -271.632
592.775 -7.7292 -253.946
228.414 18.2631 -175.366
493.46 -70.0185 -266.632
96.4689 24.5707 -294.43
612.339 98.6116 -306.645
535.892 -63.0544 -277.017
610.32 125.885 -342.572
169.297 49.9438 -198.366
698.54 236.728 -413.147
527.13 -83.4212 -251.57
495.602 -89.9525 -264.294
168.673 53.6035 -177.746
487.772 -64.0626 -231.484
92.0849 20.1869 -292.287
97.9987 1.84281 -286.9
164.816 37.0423 -175.99
534.627 -76.7703 -257.91
549.862 -81.9254 -269.646
612.816 108.013 -385.624
544.661 -78.7697 -287.551
583.879 -14.9974 -290.209
618.687 134.974 -393.959
101.567 28.3207 -299.697
634.914 122.391 -378.978
162.993 37.575 -201.207
592.228 1.77857 -287.526
667.502 197.013 -401.257
634.623 123.132 -359.47
491.541 -63.0024 -259.841
548.074 -73.1983 -263.64
167.713 35.4065 -193.659
526.059 -78.4481 -277.243
556.364 -73.6666 -279.575
593.906 112.129 -369.749
468.26 -94.3241 -265.72
515.372 -77.398 -259.865
592.568 0.752449 -264.875
590.165 -9.93333 -279.721
560.461 -10.7444 -288.594
622.766 120.23 -336.941
458.825 -95.1313 -254.185
598.062 100.279 -333.99
488.05 -62.951 -236.826
624.007 130.114 -312.197
599.983 111.218 -316.212
690.563 229.649 -393.196
572.28 17.0961 -254.369
521.676 -79.0995 -253.788
486.137 -69.6126 -227.532
553.599 -77.8837 -274.774
624.907 94.238 -316.852
589.986 20.6925 -259.042
598.701 109.521 -320.098
671.256 221.14 -403.923
671.732 203.362 -403.119
462.261 -99.5932 -244.856
575.513 9.90142 -262.816
670.684 192.378 -405.463
582.825 23.4552 -273.266
175.576 38.0459 -192.882
592.434 0.314698 -259.378
545.407 -84.4377 -263.518
506.344 -100.973 -261.965
616.555 131.651 -314.132
478.74 -86.5032 -223.559
510.149 -80.835 -265.384
493.488 -79.0139 -270.721
630.187 106.613 -303.372
591.161 111.77 -374.093
631.255 127.526 -321.649
591.297 114.26 -376.052
607.313 130.761 -392.027
183.412 49.9704 -190.69
122.263 4.95949 -303.674
166.968 36.397 -195.732
578.248 14.6293 -285.808
90.9345 9.812 -292.423
719 246.561 -332.466
636.177 123.911 -378.344
639.406 116.001 -313.179
600.945 -1.97194 -263.449
620.828 141.398 -350.705
555.892 -3.8127 -296.512
590.84 111.738 -373.296
602.615 4.57367 -266.937
682.569 240.185 -397.061
124.049 11.016 -302.156
632.112 98.7151 -323.972
95.4036 19.5851 -291.18
499.611 -90.4652 -265.705
162.381 49.0931 -204.521
524.686 -79.3827 -253.975
569.623 7.12961 -253.543
630.813 112.247 -353.315
637.588 111.35 -323.836
464.256 -90.2718 -225.266
593.016 0.818703 -260.791
584.884 -13.8064 -296.824
593.726 -1.58929 -255.566
471.085 -97.9344 -266.217
599.711 142.067 -383.13
598.464 134.117 -385.477
126.666 12.0972 -285.554
622.456 112.143 -387.827
472.176 -55.5677 -243.621
589.999 114.46 -372.384
592.017 -2.93989 -254.773
598.933 139.709 -354.07
564.541 -5.79099 -276.753
585.742 -6.67499 -304.466
607.786 129.975 -344.317
579.079 12.6416 -287.191
614.203 149.957 -354.738
554.408 -54.9321 -272.62
120.225 13.0174 -306.478
623.221 132.444 -315.19
492.382 -64.0069 -260.783
587.341 119.841 -363.344
615.554 126.754 -307.992
685.422 243.951 -410.744
622.748 92.3254 -322.828
534.789 -71.9148 -262.341
601.438 103.402 -322.048
572.326 18.1361 -281.03
565.189 0.660097 -263.07
570.056 -0.306475 -254.136
626.602 96.7372 -329.098
575.308 6.68625 -261.072
629.948 120.802 -351.365
566.791 -2.64425 -262.44
623.445 103.552 -369.815
512.868 -83.6683 -269.584
594.25 20.3653 -273.278
598.382 135.131 -385.421
678.817 203.236 -421.502
602.453 94.4612 -336.078
497.016 -96.1823 -231.279
501.773 -80.6485 -243.239
703.351 235.856 -409.187
467.115 -78.7806 -268.251
546.817 -86.1455 -272.617
577.447 -17.1479 -297.97
564.745 -7.81466 -278.466
591.064 5.90802 -287.942
684.7 231.635 -420.533
95.006 18.0191 -297.166
105.232 25.415 -304.335
614.773 152.617 -356.797
706.837 273.297 -337.365
557.34 -59.4001 -272.774
578.657 -14.8275 -268.532
609.263 111.597 -300.623
638.625 126.359 -370.567
543.813 -73.8959 -290.188
592.768 125.943 -352.347
580.236 20.3423 -282.159
623.757 93.0935 -325.918
600.251 115.626 -336.371
477.266 -86.995 -224.383
657.974 205.265 -403.103
607.796 119.681 -389.136
635.532 126.984 -379.632
616.955 129.983 -394.118
619.852 127.258 -333.018
503.393 -93.9792 -266.823
468.229 -60.4536 -251.904
601.397 112.921 -385.25
523.789 -85.6743 -277.106
597.337 19.7067 -268.221
596.327 8.29733 -284.214
599.223 7.61282 -261.129
597.453 132.308 -349.424
590.612 135.56 -365.682
525.201 -95.0499 -252.77
614.202 127.347 -307.681
595.27 138.94 -378.92
510.138 -79.8644 -249.016
454.361 -92.9215 -248.844
118.921 4.91684 -279.389
151.151 31.5765 -204.139
615.695 145.234 -352.241
563.175 1.10232 -272.134
164.641 39.5547 -174.588
467.85 -58.4333 -255.843
522.417 -94.7309 -274.002
493.091 -99.0207 -258.266
580.724 13.2215 -286.444
157.054 47.9217 -211.092
609.566 109.497 -385.559
704.67 270.136 -340.348
111.41 7.5057 -273.081
474.735 -60.0641 -256.275
592.848 18.0931 -278.492
499.984 -90.434 -230.724
616.513 130.698 -309.659
472.162 -77.8605 -270.647
483.392 -99.1945 -231.636
695.874 227.675 -394.984
94.5363 4.5372 -292.092
457.524 -94.3531 -239.015
175.972 32.1039 -178.988
631.277 132.215 -353.831
599.903 102.245 -328.715
707.575 251.581 -334.564
574.847 11.2005 -292.816
156.81 54.1533 -205.128
468.732 -104.235 -242.728
596.308 5.21766 -259.32
621.937 94.3141 -313.592
580.855 3.16701 -252.616
163.634 56.371 -196.254
610.481 126.912 -343.042
153.318 51.405 -185.182
466.019 -100.935 -251.56
166.394 40.6224 -200.229
119.861 5.59702 -303.608
593.876 140.798 -371.597
619.735 125.915 -343.077
221.401 19.376 -175.379
600.429 -4.03168 -264.725
592.847 117.919 -356.417
160.719 49.5456 -205.926
590.75 -6.81596 -287.273
599.636 139.375 -387.254
621.812 92.7367 -319.753
598.293 -0.8775 -280.607
611.077 122.572 -335.053
496.629 -67.9813 -233.417
579.497 9.98205 -292.821
489.635 -93.8238 -261.34
561.19 -7.79473 -285.048
670.076 216.604 -403.499
594.675 12.0025 -284.022
474.116 -66.3242 -229.092
566.492 12.9524 -263.957
95.0416 8.46992 -287.76
624.92 113.273 -343.216
614.852 135.061 -347.046
528.803 -71.8003 -273.379
166.378 33.1769 -186.526
698.28 236.088 -413.563
554.796 -68.2787 -269.218
686.352 236.849 -391.708
575.613 -6.80558 -253.911
624.185 124.999 -334.256
462.13 -98.982 -239.44
630.44 122.505 -385.204
576.008 22.5759 -262.785
598.759 114.964 -350.375
107.742 -1.85468 -289.519
558.46 -33.3965 -282.268
664.083 219.902 -409.995
497.146 -90.278 -237.698
593.868 -10.6734 -275.443
570.519 -18.6751 -288.627
507.917 -84.935 -243.311
626.901 119.841 -346.063
493.066 -99.783 -255.91
482.005 -88.5823 -222.138
634.409 110.261 -307.702
510.719 -80.7019 -265.533
637.358 105.748 -319.25
561.864 -13.2298 -288.864
685.971 238.739 -416.106
575.36 -19.3847 -292.489
494.48 -63.1619 -250.395
601.227 103.214 -321.66
635.695 142.972 -363.141
156.375 38.3411 -212.099
632.936 114.024 -335.062
606.352 104.31 -306.634
493.987 -79.8844 -268.238
590.64 -8.06075 -253.304
626.798 126.043 -389.605
459.505 -94.4638 -243.905
633.764 101.76 -326.918
504.144 -78.8228 -247.202
615.99 93.9472 -328.229
611.394 93.0919 -321.47
159.159 55.7222 -185.513
598.33 117.147 -355.148
626.897 103.416 -367.945
484.589 -59.7243 -243.797
668.554 228.005 -415.329
581.992 21.3115 -278.718
500.814 -72.2529 -233.384
632.191 106.203 -333.641
553.606 -43.0899 -277.617
567.383 15.1802 -278.198
615.874 93.1807 -316.696
617.48 103.147 -380.954
465.88 -76.9339 -266.379
715.748 245.962 -335.07
564.66 -9.28118 -280.042
602.26 132.604 -345.363
632.177 117.419 -355.141
573.741 19.6144 -280.304
730.439 251.098 -338.038
594.509 140.281 -375.792
504.601 -88.2597 -241.344
475.103 -101.344 -267.265
685.412 208.537 -416.498
680.034 227.696 -399.131
588.232 116.816 -366.561
122.884 5.98675 -299.43
708.796 253.255 -336.553
668.736 228.205 -415.463
113.495 0.429084 -297.652
563.74 -4.72373 -277.422
716.452 248.574 -331.824
568.355 8.56987 -255.709
116.752 18.6968 -306.983
504.349 -98.4953 -265.073
497.284 -98.7201 -248.34
626.768 98.7697 -303.767
600.137 6.59847 -276.673
676.731 218.248 -425.052
112.793 21.8049 -306.344
581.433 15.0894 -286.17
116.357 -2.87656 -298.935
551.246 -41.6683 -278.842
493.477 -82.7659 -266.629
638.83 135.048 -373.15
478.811 -71.8737 -224.585
606.093 122.674 -389.949
557.522 -1.05034 -305.946
107.483 -1.43534 -295.038
104.517 -2.45272 -288.166
610.672 104.34 -376.968
617.899 134.863 -347.111
472.803 -96.5713 -267.24
516.698 -98.5866 -252.583
592.069 0.942367 -288.029
601.243 116.729 -314.736
496.356 -66.2221 -240.735
476.401 -104.357 -259.847
702.476 229.971 -408.546
494.996 -86.2632 -228.127
473.391 -104.356 -252.754
578.705 22.3949 -258.589
710.305 269.226 -337.586
677.156 203.423 -406.518
472.628 -57.9669 -239.2
486.026 -63.3068 -260.485
674.491 219.672 -424.739
637.645 136.935 -377.101
710.55 277.088 -341.272
121.509 14.1882 -300.848
565.775 8.9757 -298.849
615.698 131.864 -311.395
149.212 32.3076 -197.476
599.028 2.0904 -279.847
612.84 91.121 -337.351
614.644 101.915 -379.678
604.668 117.395 -306.386
520.253 -95.3643 -272.959
681.035 236.81 -417.012
597.504 -6.48185 -274.076
164.867 53.1487 -179.005
542.745 -73.7812 -289.93
673.768 193.408 -411.51
162.112 36.7474 -201.353
688.981 212.845 -413.561
575.228 -13.5319 -268.156
594.35 22.643 -264.715
632.101 100.408 -306.298
575.164 10.9905 -269.355
487.044 -101.258 -262.253
154.353 32.6337 -201.236
524.853 -98.5533 -259.992
586.187 19.0387 -282.559
700.012 229.989 -392.616
621.95 106.448 -353.993
149.088 50.3799 -188.368
166.306 37.1068 -197.205
699.897 232.432 -413.077
595.079 -8.41906 -280.038
483.099 -98.35 -269.75
496.961 -100.012 -252.133
577.924 23.4639 -269.822
692.119 216.741 -414.191
627.89 105.761 -302.294
607.577 126.905 -322.556
474.991 -74.3422 -272.055
634.979 107.902 -365.102
472.883 -77.0209 -221.437
117.801 -2.67696 -297.211
476.873 -67.9783 -225.171
478.938 -92.4072 -225.202
616.789 95.726 -353.035
736.471 256.92 -342.306
474.473 -104.257 -255.742
600.517 119.185 -322.332
626.411 131.291 -316.934
556.124 -37.4276 -280.302
676.534 225.083 -423.164
593.375 100.396 -345.6
605.084 109.484 -384.645
720.431 247.651 -333.014
99.2632 -3.3576 -290.595
580.536 -17.0488 -290.41
621.715 108.735 -356.311
718.139 275.645 -351.075
101.595 27.4017 -302.971
587.017 18.0574 -284.306
482.192 -58.5926 -246.273
453.56 -92.1594 -252.19
580.506 -13.4826 -301.959
469.551 -86.95 -267.732
688.561 226.464 -396.325
636 136.429 -378.372
579.444 -17.5267 -290.26
120.254 -0.333336 -296.294
153.354 39.2499 -181.856
579.607 16.2903 -253.42
660.242 188.015 -395.813
483.618 -71.031 -268.248
610.867 110.516 -300.855
604.423 114.923 -386.629
457.531 -78.8377 -263.477
620.008 92.1156 -342.418
472.853 -68.5463 -225.267
626.095 143.005 -354.219
674.234 205.869 -403.749
627.708 131.879 -314.758
155.443 50.531 -182.717
684.138 209.647 -408.472
600.595 106.623 -324.167
181.205 55.2797 -186.476
500.376 -72.8189 -258.639
166.492 40.0523 -173.485
566.307 11.3987 -277.631
487.401 -93.2468 -270.965
487.803 -73.9997 -227.43
637.68 130.775 -371.88
669.507 227.678 -418.616
463.499 -100.151 -248.418
586.648 -7.44341 -251.347
509.286 -88.8631 -242.963
539.622 -72.1681 -261.848
542.579 -66.0749 -266.258
525.408 -74.7102 -272.108
519.145 -92.3963 -247.368
609.119 114.382 -301.502
558.828 3.45307 -297.407
613.238 100.481 -304.095
710.52 276.958 -342.724
578.82 -8.05453 -253.374
706.053 232.426 -397.729
600.07 95.8322 -334.891
483.868 -61.039 -237.93
602.956 118.025 -341.741
593.123 14.6929 -282.852
622.854 104.468 -380.78
171.336 54.7966 -178.099
637.871 131.501 -377
583.851 -15.9511 -273.04
530.142 -70.5533 -274.401
630.26 105.435 -361.824
598.753 121.601 -345.162
167.374 52.2334 -177.013
603.836 136.695 -391.302
639.727 125.588 -368.797
496.242 -98.1866 -261.544
530.786 -95.7778 -260.107
632.061 116.116 -377.563
486.065 -58.0195 -254.62
587.297 -12.6402 -263.85
485.198 -109.199 -254.421
627.062 128.495 -312.76
600.564 12.9767 -272.365
534.596 -67.759 -282.843
586.017 121.423 -364.623
609.016 96.6324 -313.897
496.353 -90.5207 -227.909
598.46 144.822 -381.778
92.4152 11.2341 -287.845
468.142 -60.2598 -251.863
609.029 113.734 -301.253
578.605 -13.9097 -275.03
622.49 110.974 -350.54
485.177 -62.7596 -234.147
729.355 275.1 -349.612
187.084 45.3833 -191.202
603.841 139.961 -348.944
625.828 118.158 -345.457
161.638 57.3705 -186.954
488.837 -104.794 -253.021
590.5 15.5194 -265.399
608.531 121.699 -390.055
613.278 130.433 -319.301
690.584 217.238 -418.681
604.627 106.193 -376.468
607.622 126.848 -342.864
465.917 -60.158 -255.276
636.945 129.931 -363.567
489.607 -101.76 -233.734
610.973 104.232 -376.989
581.7 24.4888 -269.747
593.285 -3.86255 -283.32
609.415 122.534 -333.717
473.991 -60.3173 -231.996
634.583 100.859 -315.486
584.802 -1.37072 -305.132
591.764 123.394 -375.441
622.736 118.199 -391.545
602.46 7.53412 -270.788
477.364 -97.2931 -269.089
557.86 -1.06001 -292.32
627.625 100.579 -303.717
470.123 -102.949 -251.834
601.264 5.75912 -273.842
608.084 91.8025 -338.639
609.333 97.0687 -312.839
684.669 208.32 -418.478
572.486 -11.811 -266.607
597.997 -5.47543 -274.848
603.157 5.56266 -262.142
565.225 13.216 -271.447
599.695 146.758 -373.33
522.449 -75.3801 -266.179
581.042 24.7445 -267.038
571.331 19.5206 -273.425
582.935 -11.6432 -306.508
687.824 249.715 -395.292
717.944 245.76 -337.061
635.064 118.682 -327.185
665.266 216.286 -405.818
466.805 -84.3784 -223.752
499.428 -73.6988 -232.499
555.77 -71.3222 -271.156
489.024 -95.0805 -260.402
522.636 -97.7953 -255.274
618.734 130.896 -394.5
572.017 14.7111 -253.321
593.099 115.544 -362.135
95.7722 16.2738 -293.983
462.691 -90.9715 -262.064
583.785 -15.191 -293.616
487.478 -94.6518 -269.019
635.187 129.832 -383.631
665.151 208.018 -402.605
126.322 20.3955 -288.17
584.386 -14.5646 -294.961
526.315 -92.703 -251.439
563.787 -6.63451 -278.835
477.418 -59.8646 -255.146
673.584 221.488 -424.086
693.624 241.071 -413.395
603.768 100.076 -315.895
590.046 114.207 -372.443
600.292 108.242 -324.279
540.201 -62.0678 -270.748
470.426 -57.4399 -246.275
534.07 -67.1319 -281.001
495.532 -65.1204 -243.894
685.337 215.006 -422.541
599.459 105.423 -320.973
584.467 -2.36348 -251.229
628.745 145.59 -359.595
577.557 13.464 -266.365
632.639 121.485 -328.548
678.927 210.773 -424.608
170.146 43.9463 -198.535
701.685 237.744 -410.358
608.911 144.125 -352.131
156.662 54.6706 -185.975
706.202 264.402 -333.375
624.883 98.4714 -343.918
599.123 113.661 -319.615
534.476 -66.1825 -272.011
521.778 -96.6276 -252.448
625.093 122.99 -389.355
514.838 -77.928 -262.947
609.815 153.32 -358.643
595.333 107.027 -339.936
665.204 214.465 -404.97
673.111 199.887 -404.7
465.855 -85.961 -225.146
555.059 -28.7244 -285.23
532.995 -78.9793 -283.286
477.472 -76.2718 -223.13
665.78 191.8 -400.034
627.141 122.768 -335.528
154.439 43.1073 -180.391
592.362 127.97 -355.122
598.515 2.644 -281.419
604.363 118.794 -388.113
735.03 264.417 -344.378
695.352 220.528 -411.747
588.098 120.325 -367.62
154.501 33.8543 -208.65
160.055 35.7538 -180.554
606.403 126.147 -318.213
612.602 102.623 -301.83
613.349 93.1886 -317.876
552.819 -34.953 -282.283
555.952 -4.06257 -297.284
555.852 -62.5805 -270.906
540.635 -89.6421 -262.964
200.24 25.142 -175.935
588.385 17.2148 -284.721
622.557 94.5748 -342.66
505.781 -75.1094 -239.08
618.112 93.5234 -326.032
669.501 223.026 -422.388
565.661 -16.4125 -288.723
570.607 -13.2633 -283.388
672.268 228.703 -420.063
571.886 17.8658 -255.544
684.818 208.408 -418.259
572.784 12.3656 -291.371
476.729 -73.9129 -271.555
485.158 -91.4543 -223.954
587.983 122.516 -366.917
599.958 143.044 -356.169
631.768 128.84 -317.094
626.648 98.4677 -333.707
591.018 -11.2095 -261.297
493.915 -78.3328 -270.335
495.552 -63.0582 -259.644
680.659 230.917 -398.281
520.372 -77.9947 -270.098
542.961 -73.728 -261.455
596.547 16.4903 -275.566
535.21 -64.9439 -273.457
695.348 223.798 -416.385
174.898 56.9904 -187.008
624.764 131.806 -393.808
597.26 15.1759 -261.835
165.236 33.991 -191.876
602.723 0.632837 -261.626
684.008 220.689 -423.424
689.163 239.784 -387.011
637.098 106.617 -321.724
577.795 7.87721 -250.166
592.732 -4.08464 -284.127
555.06 -74.1633 -283.554
639.066 109.858 -314.278
498.748 -68.6202 -235.258
588.611 -9.657 -290.487
121.655 3.95742 -303.526
589.027 24.8522 -265.948
533.103 -68.5186 -268.879
489.786 -98.7456 -259.309
562.901 7.35928 -298.514
661.592 206.27 -402.533
615.495 88.7866 -346.565
632.226 109.177 -359.323
546.359 -85.9903 -276.135
562.494 -38.0167 -281.735
675.647 232.144 -403.685
616.549 126.512 -307.356
566.542 -9.28964 -277.732
154.398 42.6667 -180.393
614.618 89.6987 -340.132
585.921 8.71926 -292.136
625.624 126.516 -390.504
505.172 -80.9527 -234.946
592.835 102.669 -353.147
498.57 -63.8284 -256.708
476.973 -92.0322 -224.959
626.801 149.127 -357.407
593.538 116.404 -381.05
599.685 114.957 -336.829
601.63 92.622 -337.746
570.595 10.8459 -251.845
98.9152 -2.18886 -291.577
631.662 105.347 -333.336
596.286 -5.15271 -281.869
505.128 -69.593 -248.753
589.202 -2.84542 -295.515
500.607 -98.9589 -248.618
178.988 42.4847 -193.642
495.297 -67.4072 -233.042
671.491 212.437 -402.736
589.476 -8.40142 -289.596
594.102 2.89729 -264.052
604.116 120.159 -344.638
586.147 -12.9739 -290.467
523.046 -83.0222 -250.41
624.459 127.922 -311.342
612.35 130.998 -345.038
635.934 131.908 -362.377
634.256 101.43 -312.002
117.43 0.425497 -294.835
717.285 275.57 -350.959
623.942 139.706 -349.788
594.372 132.48 -379.389
480.531 -106.361 -260.004
589.38 126.557 -369.232
596.788 139.421 -358.012
523.165 -85.3508 -249.212
175.952 37.1836 -192.062
700.13 227.305 -399.609
674.813 229.956 -403.674
628.247 111.134 -337.949
596.178 8.54258 -262.065
501.677 -97.3786 -264.737
178.918 42.2327 -193.615
119.824 8.57978 -304.659
511.687 -99.9954 -253.068
604.584 125.494 -342.243
497.699 -66.9964 -240.259
683.759 213.401 -423.079
595.175 130.933 -352.723
716.55 269.825 -362.514
463.19 -100.058 -246.071
488.97 -65.0518 -229.972
571.933 18.1342 -256.037
612.604 130.078 -311.943
683.346 213.415 -423.3
587.975 23.6875 -271.779
598.011 125.367 -389.204
486.379 -72.8933 -227.027
603.875 119.244 -331.324
600.655 15.9364 -267.49
619.175 94.8388 -311.135
577.151 -8.66532 -255.324
595.119 7.74673 -264.945
696.411 228.271 -416.337
598.12 -6.47997 -269.097
480.667 -64.4992 -230.149
611.837 151.367 -355.958
497.306 -78.05 -262.754
483.208 -104.243 -264.688
683.143 214.151 -423.535
499.954 -69.5006 -262.807
490.889 -101.864 -256.775
569.368 -9.23018 -265.962
93.054 19.8261 -291.233
564.6 -14.2399 -287.037
689.227 230.254 -393.272
631.774 124.846 -310.516
632.585 119.565 -355.895
675.569 207.677 -424.955
625.177 145.065 -354.471
558.479 -51.4314 -275.56
537.757 -88.5682 -257.66
487.25 -95.9584 -268.061
523.834 -84.4848 -249.84
592.65 132.661 -375.399
616.504 111.768 -300.089
481.514 -61.5652 -234.731
660.162 209.919 -405.263
685.544 210.033 -419.263
504.998 -77.9111 -239.182
166.829 47.7282 -174.408
564.398 1.2251 -264.65
472.651 -89.8168 -268.515
510.026 -101.19 -256.964
573.741 -11.4346 -263.43
484.51 -59.3234 -245.389
597.325 138.105 -355.715
661.395 218.798 -414.581
469.966 -100.383 -263.131
499.913 -66.9822 -245.372
166.166 48.4773 -175.032
613.926 90.2853 -350.128
532.227 -81.8416 -282.461
596.188 109.467 -379.368
715.126 270.456 -361.769
677.679 222.829 -400.964
458.959 -89.754 -260.108
577.948 -13.9541 -279.994
632.213 110.585 -356.936
525.586 -95.2298 -253.306
180.517 44.3678 -193.298
593.191 124.314 -378.547
625.521 115.531 -339.727
594.71 130.59 -353.278
614.775 93.687 -329.952
633.802 120.11 -378.559
592.663 128.304 -376.413
617.01 119.85 -341.68
468.39 -83.8925 -267.822
473.75 -59.4144 -233.938
502.921 -71.5538 -234.519
674.696 228.866 -403.399
591.011 119.141 -374.608
612.477 89.9916 -339.814
163.003 39.1421 -202.728
472.986 -103.067 -236.151
148.023 31.1742 -202.443
679.054 226.766 -399.824
492.231 -73.6883 -229.397
621.845 130.722 -345.406
474.205 -66.1973 -264.002
480.782 -109.541 -242.046
572.116 18.6544 -257.214
165.091 49.0154 -175.807
161.113 49.9243 -178.446
576.391 11.6162 -301.762
613.711 107.434 -385.572
162.012 46.341 -176.246
729.21 272.438 -350.986
494.138 -100.515 -232.689
108.74 27.315 -300.74
633.583 114.422 -357.592
160.902 37.7436 -177.762
488.158 -60.5364 -247.952
597.92 122.846 -345.144
491.502 -96.0273 -227.963
624.327 127.989 -310.933
501.09 -89.1654 -236.754
172.023 54.8289 -192.761
576.416 -6.25884 -252.663
694.444 225.918 -417.864
637.904 120.292 -365.182
585.273 -13.628 -294.309
520.342 -76.207 -261.795
606.975 88.5701 -340.833
628.715 120.957 -335.481
497.485 -99.6861 -233.999
596.924 11.3176 -259.759
619.343 119.154 -342.43
699.444 237.222 -412.323
92.2077 20.7833 -293.336
629.664 108.083 -335.649
636.18 103.548 -313.752
683.609 237.798 -416.691
496.956 -73.3415 -231.5
570.956 -10.8651 -270.942
473.159 -102.827 -259.346
510.22 -100.716 -254.735
172.205 52.4361 -194.926
600.539 4.96011 -275.517
590.461 116.113 -373.971
638.626 120.683 -366.432
685.816 241.422 -391.858
484.35 -57.5782 -254.907
609.259 126.81 -342.931
535.277 -86.3088 -282.262
518.598 -94.0046 -247.999
157.264 39.2943 -211.048
582.948 -15.8821 -293.392
613.021 112.594 -301.521
556.179 -5.77323 -296.381
594.878 131.235 -353.592
597.67 10.5063 -279.847
522.501 -86.4624 -248.589
624.093 106.084 -380.486
171.88 33.2032 -178.274
512.443 -92.1802 -270.922
558.105 1.09269 -294.152
612.601 119.911 -318.065
94.4129 14.8675 -295.538
570.509 -4.95688 -257.014
468.428 -89.3439 -228.971
581.212 8.7215 -294.669
119.971 2.2167 -302.437
599.064 8.72912 -260.526
591.664 126.694 -374.478
556.215 -67.5818 -270.768
582.057 2.05962 -249.704
480.376 -103.575 -266.052
576.906 23.3184 -260.901
597.445 98.2794 -336.856
496.361 -92.7486 -264.285
547.595 -82.8778 -265.501
469.173 -80.1373 -223.788
611.574 129.439 -311.941
680.1 206.524 -407.118
482.962 -100.898 -233.347
616.613 151.913 -355.67
564.386 -12.4407 -285.283
507.317 -78.9976 -260.906
488.426 -106.149 -252.542
489.672 -89.4597 -225.262
163.959 36.5211 -198.736
602.342 118.268 -327.527
737.332 262.892 -344.804
557.57 -8.59665 -296.887
630.237 105.561 -305.76
707.236 273.841 -342.458
604.443 144.202 -353.883
594.003 100.12 -348.592
101.156 17.4027 -275.987
640.958 138.357 -372.963
726.255 248.014 -358.011
618.868 102.485 -379.885
677.061 207.406 -424.486
626.378 142.571 -354.231
519.588 -98.8518 -268.976
508.8 -101.12 -256.004
632.518 122.946 -312.447
563.346 -2.12975 -270.743
557.515 -64.0908 -272.242
590.115 -6.58538 -252.815
616.724 95.0993 -351.841
575.213 11.0481 -269.253
618.049 94.793 -356.434
578.528 -0.820193 -250.266
522.328 -75.6698 -267.645
672.034 232.192 -414.123
633.266 130.859 -357.251
517.958 -90.4742 -246.328
601.801 129.266 -343.681
573.584 -9.25884 -258.636
623.003 119.619 -337.202
592.391 0.234286 -262.61
526.681 -98.336 -265.593
629.55 145.126 -357.08
728.826 247.994 -336.348
556.733 -1.62327 -294.379
690.043 221.566 -400.594
182.52 34.054 -187.82
113.294 -1.94746 -292.176
603.964 104.875 -310.395
556.943 -70.7553 -273.395
518.22 -100.521 -261.46
693.186 232.531 -389.239
630.546 126.622 -324.146
574.799 21.8069 -259.998
597.519 -7.25758 -267.669
628.529 98.2459 -308.406
493.329 -70.5121 -267.119
178.266 51.8492 -191.842
551.66 -74.2303 -266.352
685.603 239.625 -392.144
561.05 -2.12189 -282.692
634.615 100.912 -315.811
559.504 -4.79093 -287.025
487.208 -80.7704 -274.498
556.345 0.839265 -296.694
707.395 255.52 -331.147
559.281 -51.7091 -276.006
485.445 -100.173 -232.462
599.422 134.2 -386.619
626.322 123.878 -345.191
690.33 223.334 -398.911
517.97 -76.8857 -260.754
522.095 -87.4632 -248.197
160.227 53.2905 -203.246
591.087 20.5548 -275.809
626.144 128.438 -345.07
608.389 126.331 -309.417
611.337 103.8 -382.611
474.213 -104.852 -252.34
600.418 -3.56998 -267.1
629.19 121.391 -350.077
584.046 6.9315 -297.229
163.241 40.9933 -203.571
612.751 150.616 -359.145
621.526 107.101 -363.034
624.822 98.6178 -344.478
475.203 -67.8704 -224.305
633.708 125.615 -357.93
590.255 20.7099 -276.103
627.775 125.27 -388.501
593.607 140.391 -364.826
504.184 -81.33 -237.437
626.312 129.843 -345.505
605.903 115.3 -387.07
498.665 -64.8741 -252.135
682.7 227.654 -422.371
183.74 43.9625 -192.249
589.645 118.527 -356.899
164.112 33.5757 -190.888
598.781 109.031 -320.013
600.285 149.068 -371.483
509.567 -101.175 -256.634
523.89 -74.6647 -267.011
674.685 220.896 -402.22
454.947 -88.1202 -258.652
604.975 137.062 -392.275
700.571 226.499 -407.156
468.192 -92.2755 -226.544
467.21 -99.1856 -262.442
491.122 -69.6131 -266.393
672.611 195.477 -406.247
572.946 20.9948 -268.272
691.139 221.546 -419.942
594.408 127.129 -380.706
599.415 108.613 -382.02
721.152 266.156 -363.271
490.167 -68.9284 -229.424
529.552 -74.8981 -279.271
599.036 -2.86848 -275.593
621.835 96.83 -306.624
469.283 -90.6203 -230.013
633.46 124.975 -382.302
459.275 -96.3738 -252.422
693.048 220.632 -403.884
474.13 -71.2064 -269.004
606.97 126.377 -312.413
626.125 114.958 -339.24
595.065 144.541 -374.589
628.813 103.739 -366.153
572.865 20.8654 -269.034
690.555 235.432 -417.66
507.565 -77.6604 -255.376
483.785 -105.452 -237.798
706.42 273.142 -339.321
168.114 40.3534 -198.647
596.155 143.013 -379.808
163.198 55.0556 -198.683
585.859 -4.8574 -304.227
117.367 0.542057 -294.771
167.706 55.9615 -180.937
591.786 -0.107866 -265.594
662.465 213.169 -405.927
479.965 -77.011 -274.075
600.212 113.815 -316.271
580.404 -12.8916 -305.66
91.3904 12.809 -293.691
584.907 20.1109 -280.865
474.175 -101.364 -266.781
562.635 -10.5551 -284.569
667.485 222.803 -408.034
481.028 -68.0058 -265.43
571.396 12.7547 -290.831
697.468 223.145 -411.006
592.569 139.598 -366.042
500.351 -71.2183 -260.612
605.825 105.836 -383.141
596.685 16.6876 -260.795
463.312 -100.129 -245.956
480.606 -64.0144 -230.599
557.082 -35.0755 -281.429
460.309 -87.2464 -262.407
549.537 -67.2598 -266.267
562.012 -13.5838 -289.293
634.924 101.054 -313.486
473.881 -107.088 -241.131
476.294 -60.1155 -255.907
466.867 -77.8545 -267.972
486.279 -105.356 -237.53
660.836 215.402 -409.583
173.913 32.3527 -180.521
574.898 3.76073 -262.596
120.951 0.901573 -300.654
602.96 132.148 -345.128
571.414 15.5128 -280.97
106.536 -2.19331 -294.946
510.12 -99.6974 -265.942
602.885 4.93548 -267.988
469.007 -80.7431 -221.885
668.711 205.434 -402.188
630.479 119.379 -382.717
599.491 134.34 -347.211
591.703 134.426 -372.85
733.969 255.349 -340.832
508.068 -89.9694 -242.534
626.859 148.619 -358.128
475.04 -89.9992 -225.388
634.012 107.489 -333.193
637.039 136.883 -365.616
616.234 96.8665 -306.157
597.899 136.549 -352.968
474.857 -104.075 -257.52
585.852 120.915 -363.742
630.79 143.142 -357.539
493.667 -94.0815 -226.211
731.763 270.881 -345.337
574.147 15.5507 -254.408
489.472 -87.7928 -271.65
557.789 -60.2549 -272.978
636.712 116.538 -371.593
536.326 -62.4752 -276.733
622.393 104.942 -381.823
594.026 16.2765 -259.984
474.188 -62.7082 -232.164
170.751 42.031 -197.608
684.541 244.724 -408.964
555.545 -56.4552 -272.488
586.24 -3.00437 -251.851
115.85 2.75071 -299.427
588.02 19.6829 -280.311
700.575 234.761 -412.153
636.455 122.336 -320.619
100.574 18.6051 -276.033
614.764 147.95 -353.666
593.754 101.368 -348.284
456.481 -97.0763 -242.375
679.073 207.691 -423.797
620.657 126.571 -334.138
615.933 131.52 -313.695
718.597 246.018 -337.44
598.379 -5.38976 -262.009
481.428 -106.075 -261.77
505.924 -79.1615 -260.829
178.98 32.3794 -184.94
574.271 21.8715 -262.812
608.608 126.319 -307.315
485.661 -71.5155 -268.597
607.625 96.5641 -323.224
523.95 -94.9303 -251.706
111.416 -1.82146 -290.693
172.458 57.2468 -188.151
530.45 -78.8611 -281.384
502.415 -100.049 -251.182
478.096 -79.6705 -223.251
613.403 100.36 -304.107
582.973 24.8415 -269.461
588.859 135.55 -369.933
465.253 -87.2489 -224.517
700.593 227.413 -400.44
686.598 209.885 -415.063
467.438 -92.6611 -226.92
660.654 194.546 -397.45
630.659 131.584 -352.755
582.066 -13.0704 -304.569
681.673 238.025 -416.099
458.186 -75.228 -263.77
634.198 109.6 -333.362
602.291 135.8 -346.796
628.165 129.673 -348.456
584.087 1.13234 -304.507
692.831 228.738 -418.765
528.376 -73.854 -261.849
598.451 113.496 -338.408
115.384 -4.02702 -294.6
596.838 116.365 -357.924
152.55 32.1497 -206.085
720.974 273.654 -353.32
476.834 -82.6643 -223.197
680.113 219.317 -424.517
674.09 223.794 -402.732
587.366 -2.59568 -300.159
486.647 -70.2754 -227.63
481.679 -74.7721 -225.024
674.348 206.425 -403.673
163.916 48.13 -175.965
579.001 -12.3948 -262.117
590.749 20.2973 -261.61
150.613 50.4026 -186.825
467.951 -96.601 -231.169
635.183 124.945 -360.471
674.799 234.071 -407.081
631.897 110.671 -356.475
488.493 -94.4375 -266.159
167.707 49.5688 -199.694
546.195 -84.8069 -279.63
505.058 -94.9365 -243.852
686.429 239.677 -415.372
146.19 45.1126 -188.114
679.274 201.025 -412.608
629.9 129.774 -317.333
606.787 96.5052 -316.615
594.597 -0.402711 -253.438
491.994 -60.9576 -254.747
503.768 -78.5663 -241.876
169.829 51.7103 -175.614
461.329 -74.1817 -264.64
597.027 4.99282 -284.616
471.605 -97.2538 -230.71
601.609 116.76 -331.844
110.497 -4.27251 -290.295
474.618 -67.155 -224.407
475.6 -56.9891 -237.817
565.121 9.34328 -283.11
469.456 -70.7706 -265.764
496.896 -99.2062 -236.64
165 40.286 -201.378
503.187 -87.3594 -232.652
491.536 -60.9505 -253.775
611.92 119.718 -304.03
538.464 -68.6509 -288.366
691.581 218.591 -405.49
562.135 6.83418 -296.913
476.964 -82.51 -223.203
625.004 109.041 -356.885
621.877 131.546 -320.65
602.463 1.7314 -268.823
691.469 216.242 -410.563
659.803 215.914 -412.412
694.116 219.073 -412.632
480.726 -64.9175 -229.805
507.601 -81.5718 -264.995
172.831 35.7132 -191.57
699.607 225.488 -405.825
564.335 9.16937 -275.507
670.489 198.802 -403.034
591.878 19.4187 -259.246
125.106 9.81381 -283.699
172.465 46.5663 -197.107
472.552 -103.261 -255.937
544.442 -87.5655 -267.213
162.402 51.8003 -202.749
512.274 -79.5323 -250.6
594.581 -1.42443 -256.193
626.689 105.26 -343.434
601.273 147.355 -359.708
557.635 -0.0694958 -302.275
518.395 -86.8952 -246.798
633.025 107.605 -364.262
567.321 15.6022 -269.154
622.903 127.907 -307.753
564.745 11.0677 -276.06
600.937 5.35865 -274.647
625.216 139.782 -351.915
569.387 11.7135 -255.111
455.305 -91.9783 -248.805
534.205 -79.9571 -255.752
476.839 -68.7232 -240.421
486.646 -108.943 -244.413
538.867 -73.5484 -260.807
597.149 138.604 -356.545
480.691 -98.1675 -230.803
472.421 -93.3092 -227.358
489.024 -89.2895 -271.128
585.492 -4.92199 -251.62
566.243 -3.51302 -264.02
628.861 128.409 -313.405
591.875 118.962 -376.644
671.834 202.599 -424.528
516.038 -99.7298 -254.828
100.349 1.33851 -292.801
551.707 -54.0932 -272.457
564.722 -2.13586 -273.585
727.689 254.474 -361.432
460.233 -91.7108 -259.459
630.002 106.97 -334.946
686.518 233.473 -419.457
704.79 267.5 -334.451
526.861 -91.0968 -277.435
151.467 53.781 -189.687
570.928 -10.7263 -274.168
630.831 97.6992 -313.636
597.07 -5.45492 -279.442
637.264 129.7 -376.918
456.875 -92.0047 -256.557
605.024 153.074 -361.281
679.559 201.989 -419.003
536.964 -88.1461 -281.049
532.956 -74.1259 -283.023
488.529 -95.084 -265.179
586.999 121.409 -360.891
682.741 223.464 -423.466
695.269 221.046 -413.852
667.05 210.013 -402.878
509.297 -81.6101 -265.837
491.958 -106.826 -240.009
99.4195 27.1886 -296.742
467.135 -86.7658 -222.801
547.998 -84.5545 -270.492
510.264 -86.4527 -243.686
704.21 264.733 -333.963
583.049 7.0442 -297.509
593.178 128.704 -354.312
619.588 142.046 -350.993
598.632 135.352 -350.133
601.192 116.623 -343.992
559.873 -11.9058 -291.657
574.413 -11.5582 -262.941
464.075 -84.3621 -265.525
559.846 -8.84258 -288.385
613.115 92.4287 -319.974
623.416 108.721 -349.871
495.384 -66.0175 -239.447
601.86 106.63 -377.187
585.515 0.375739 -250.252
661.143 211.773 -405.912
465.019 -69.4855 -264.247
610.047 128.556 -343.777
629.572 126.697 -309.996
467.054 -61.7128 -254.317
569.373 -4.44158 -258.577
556.586 -4.26781 -300.501
587.102 -2.06931 -251.573
459.957 -94.4334 -256.291
590.958 132.821 -371.512
635.405 141.386 -368.146
573.699 -12.8928 -268.736
598.662 121.358 -345.696
616.251 91.9278 -320.404
505.059 -77.1531 -239.968
512.01 -92.7387 -270.652
600.272 106.615 -316.42
632.962 123.287 -310.98
623.163 109.319 -349.982
500.215 -67.0052 -257.664
495.614 -88.7411 -227.927
521.101 -80.2569 -273.429
157.954 33.1021 -193.705
596.418 12.0383 -260.325
683.544 206.276 -417.087
599.541 138.22 -351.195
509.605 -99.5862 -265.916
624.821 96.5364 -335.329
524.049 -78.5813 -275.236
594.975 96.6363 -344.015
580.358 19.4607 -255.951
483.804 -91.086 -272.996
597.208 103.536 -334.049
482.234 -88.2923 -222.272
571.361 19.7961 -270.092
626.263 115.877 -385.7
550.64 -47.9195 -275.522
624.612 100.907 -302.717
679.959 234.901 -399.181
576.998 11.5776 -259.487
601.465 138.104 -389.337
581.464 -17.2274 -297.026
528.818 -94.6479 -274.911
598.75 18.4481 -264.927
697.373 226.242 -398.298
471.221 -93.8918 -267.091
486.514 -83.2736 -274.504
501.852 -78.4399 -232.654
596.177 4.2468 -257.388
624.268 121.364 -336.213
482.985 -59.2377 -243.474
594.828 111.47 -381.72
684.856 235.153 -418.579
586.263 -12.8854 -289.686
598.307 127.76 -343.9
107.587 27.1378 -305.53
625.401 112.533 -342.932
470.335 -100.643 -262.796
550.764 -79.2289 -282.885
605.33 124.223 -390.39
467.217 -101.567 -251.512
635.758 120.988 -376.607
532.842 -79.1586 -283.168
491.602 -64.68 -236.971
620.807 93.5111 -325.814
582.77 17.7994 -257.588
529.244 -71.233 -272.674
486.152 -100.055 -266.385
112.203 -0.0593519 -296.57
608.428 135.883 -394.095
588.703 114.879 -368.446
510.741 -91.4523 -270.232
589.133 -2.75312 -295.7
635.18 126.35 -315.159
677.421 225.159 -423.235
533.692 -80.3974 -283.561
571.508 -13.1219 -282.48
561.058 -37.2243 -281.311
577.841 9.91156 -301.04
571.753 19.7285 -273.876
578.323 11.1584 -251.174
682.713 236.674 -417.442
160.513 42.3931 -176.344
146.023 33.7936 -194.492
504.209 -77.7884 -249.897
666.613 209.417 -402.798
607.145 152.6 -361.079
496.617 -95.4327 -229.11
119.203 22.4204 -304.102
165.996 38.7354 -174.223
104.764 27.9831 -303.772
684.734 216.366 -403.126
586.436 -5.96214 -251.618
481.892 -69.5807 -227.199
118.513 17.1416 -307.214
522.438 -93.4801 -249.593
583.033 -14.9841 -285.337
639.249 108.658 -311.249
582.008 12.5628 -286.778
538.765 -68.7717 -264.673
592.257 122.699 -376.735
487.374 -58.5512 -255.167
684.25 245.234 -407.48
484.588 -74.6688 -225.945
594.854 121.029 -348.493
470.776 -72.7136 -270.474
473.808 -88.5148 -224.509
513.101 -95.2918 -246.57
736.942 263.743 -344.894
587.568 19.9521 -257.846
552.155 -53.7259 -272.657
510.189 -91.833 -269.959
466.11 -99.9046 -238.263
546.852 -63.6937 -267.589
520.188 -76.8231 -267.312
498.476 -100.331 -252.857
638.645 119.138 -370.391
598.527 112.644 -352.617
602.419 87.3542 -338.402
196.231 27.895 -184.357
613.636 107.534 -310.975
638.173 136.768 -376.953
498.635 -90.9005 -265.33
560.007 0.087743 -302.126
595.002 126.323 -382.259
545.495 -75.7101 -289.431
608.82 133.362 -390.757
581.682 -8.346 -308.567
504.916 -73.0156 -245.598
95.6979 -0.439034 -290.352
675.77 195.935 -415.084
157.515 39.8663 -178.658
485.278 -99.1507 -231.465
591.691 -6.4723 -283.922
597.264 11.8786 -279.413
493.08 -87.0059 -227.167
557.836 -6.63377 -291.368
664.764 211.743 -404.015
556.485 -2.46229 -304.286
549.961 -63.8456 -267.866
733.692 254.262 -346.048
582.91 8.91918 -293.287
626.38 131.205 -317.142
610.133 115.604 -302.277
599.024 109.695 -329.371
504.595 -94.0027 -267.306
671.336 198.411 -403.712
706.076 272.857 -340.36
706.162 254.106 -335.423
470.027 -98.1965 -232.359
585.945 -12.1619 -259.67
461.104 -77.2055 -264.84
462.572 -94.5005 -262.529
623.362 95.5934 -342.859
462.657 -92.3939 -262.306
482.788 -66.7949 -229.635
611.743 121.232 -337.185
487.522 -74.9697 -227.121
673.424 216.342 -402.544
594.805 95.8497 -344.719
591.364 -12.7186 -275.133
536.712 -69.2484 -286.512
672.104 203.356 -403.279
548.314 -84.5963 -272.917
584.259 -7.66193 -305.694
561.594 3.35403 -300.723
125.508 10.5511 -284.4
523.607 -80.9839 -276.091
177.567 55.9149 -187.728
498.136 -64.3138 -260.116
578.638 21.7339 -276.805
659.71 216.345 -417.935
152.474 32.0674 -201.241
527.66 -77.7884 -256.139
594.39 113.529 -366.111
600.367 119.503 -387.583
636.951 137.947 -375.212
588.852 19.3858 -258.464
590.182 18.4007 -259.909
579.146 11.2769 -290.181
579.239 -15.2061 -300.326
622.071 96.8086 -354.354
586.533 -15.2997 -272.949
564.726 1.30832 -263.842
492.159 -83.9571 -227.35
499.538 -85.5787 -230.263
615.962 128.546 -344.092
694.475 229.659 -417.655
580.1 21.5041 -278.272
621.771 105.693 -367.152
601.936 105.742 -313.332
586.414 24.7623 -266.682
483.285 -100.759 -233.188
483.055 -56.897 -253.359
601.341 125.647 -390.134
557.247 1.62315 -298.441
590.823 -8.91384 -280.757
638.122 128.393 -365.641
707.799 271.636 -336.501
456.599 -96.454 -248.033
461.23 -94.5852 -239.999
625.198 126.564 -330.215
100.894 0.982159 -292.891
167.993 57.5576 -184.057
467.786 -75.6446 -268.097
681.405 203.273 -415.765
558.558 0.976378 -292.171
494.812 -71.8527 -230.862
503.861 -93.8563 -267.032
466.161 -100.907 -240.067
605.235 119.57 -340.014
636.794 113.395 -363.267
622.801 118.494 -391.669
620.845 106.63 -385.395
563.458 3.39049 -299.794
609.137 127.252 -327.32
487.182 -106.878 -255.22
471.704 -92.8593 -227.021
500.461 -87.286 -265.672
596.805 123.848 -387.032
624.238 149.493 -357.582
610.22 99.8315 -307.021
508.833 -98.0563 -267.146
483.693 -67.5016 -264.757
593.684 13.2647 -283.981
737.848 258.174 -344.147
172.322 33.2092 -177.821
615.423 89.1353 -344.186
602.653 105.11 -312.459
164.34 33.4777 -184.376
662.885 196.349 -398.847
577.998 1.82684 -258.475
708.51 252.68 -331.659
627.117 103.335 -341.348
563.663 8.07476 -287.555
660.643 216.168 -410.973
520.205 -94.2344 -273.598
514.394 -78.2433 -263.538
600.517 131.968 -383.732
565.737 14.0647 -271.884
567.359 -12.4776 -283.571
678.247 202.691 -408.272
692.554 231.539 -390.603
681.573 206.155 -409.149
632.599 137.589 -358.168
620.125 108.24 -300.18
494.8 -84.872 -228.307
675.073 235.492 -409.018
498.029 -97.3738 -235.633
673.933 233.72 -415.452
503.613 -70.6763 -237.654
94.1494 23.8068 -295.046
686.653 247.58 -394.347
615.338 130.432 -322.804
720.824 276.884 -349.984
487.255 -83.9492 -273.886
690.722 223.986 -398.355
498.537 -95.3212 -231.591
162.843 50.0787 -177.558
687.06 247.233 -406.354
598.675 -3.06792 -276.752
639.576 125.812 -369.271
606.92 120.84 -337.079
554.614 -40.4838 -278.852
588.628 -11.8101 -261.462
609.6 93.0787 -334.881
556.255 -4.38226 -298.8
482.101 -80.5567 -223.688
596.238 131.751 -351.422
501.575 -67.1353 -254.439
485.564 -106.009 -260.833
603.289 96.5307 -330.457
169.226 56.3438 -192.494
568.261 16.1534 -264.792
682.289 221.444 -400.116
688.519 212.348 -413.197
594.578 -0.908519 -255.121
599.841 129.156 -343.528
171.085 57.8399 -186.265
571.295 14.1534 -283.757
609.836 146.266 -353.652
699.593 229.491 -413.156
565.876 -16.6734 -288.768
598.623 113.171 -323.18
589.055 126.093 -368.59
618.453 110.072 -300.44
591.994 -8.00075 -280.783
630.201 107.735 -357.123
599.947 113.183 -329.594
543.093 -89.3827 -271.745
105.835 29.2395 -282.287
704.232 265.862 -356.293
610.255 132.001 -390.777
594.883 0.188052 -253.733
482.14 -63.1208 -232.989
587.845 -0.561151 -250.996
598.235 14.4788 -260.71
536.733 -93.7432 -269.007
600.348 114.128 -315.978
482.594 -107.712 -257.739
591.504 22.8417 -270.905
638.141 108.413 -319.984
521.48 -89.6115 -247.799
462.523 -94.5867 -261.891
453.942 -86.5745 -258.929
197.294 27.0036 -183.59
600.358 148.754 -361.971
688.295 236.089 -390.009
577.608 22.2731 -258.129
558.017 -5.13704 -290.673
482.524 -68.017 -265.343
690.927 233.827 -389.405
667.785 189.368 -402.836
462.194 -87.9642 -263.16
614.352 129.621 -308.49
637.753 106.409 -315.381
494.334 -61.9187 -255.585
476.724 -75.8427 -234.359
121.089 19.9868 -304.294
164.813 36.4472 -176.557
572.301 11.9852 -292.443
596.999 94.4887 -342.545
620.023 107.22 -357.777
99.4773 26.6957 -296.539
683.929 208.49 -409.741
597.781 17.9412 -272.143
483.827 -108.076 -257.762
230.754 14.9623 -178.086
486.769 -106.121 -257.257
469.239 -105.005 -240.209
593.864 127.289 -351.59
596.379 101.346 -336.901
488.211 -68.6834 -228.621
666.219 214.898 -424.214
194.804 26.8584 -178.549
726.731 270.393 -353.983
183.686 50.1906 -190.436
595.442 -0.763568 -283.77
623.445 95.7798 -343.269
619.803 130.103 -325.068
629.237 126.443 -326.018
470.721 -105.295 -238.566
563.531 -9.49428 -281.952
610.278 93.2628 -320.788
537.274 -89.9876 -278.981
560.997 -3.46175 -283.09
692.177 222.743 -400.165
597.621 -5.95397 -260.603
469.792 -85.0858 -222.337
673.269 227.129 -404.185
534 -81.2894 -283.589
616.162 102.237 -377.756
536.54 -66.0878 -268.964
632.737 115.464 -333.595
702.069 229.086 -408.396
454.635 -92.6829 -248.499
512.17 -100.76 -264.178
560.38 -47.7242 -277.741
573.045 -11.8474 -273.835
542.923 -66.086 -266.21
582.283 18.0326 -255.296
543.688 -85.0954 -261.727
704.634 268.219 -335.121
574.032 10.3515 -252.575
604.605 119.45 -344.208
558.184 -59.4824 -273.473
456.1 -88.4324 -259.188
683.284 242.318 -411.875
628.107 106.922 -339.549
733.053 266.775 -344.471
637.263 122.341 -364.077
598.516 13.7862 -275.434
735.023 261.045 -348.881
96.0321 7.67282 -287.161
167.121 34.0884 -179.284
596.207 110.939 -371.137
591.991 116.177 -377.502
583.447 15.4792 -268.744
491.233 -105.709 -245.254
175.064 45.2515 -195.691
458.599 -96.2198 -251.878
537.745 -77.349 -258.198
545.487 -62.0287 -268.676
569.91 10.6971 -297.268
612.443 108.965 -385.925
617.315 103.366 -300.86
546.924 -64.8523 -266.943
682.674 244.527 -404.963
525.683 -98.2285 -259.996
150.741 38.9773 -184.082
580.752 1.52999 -255.36
600.65 118.096 -319.197
527.293 -80.5164 -279.061
614.05 88.418 -347.692
626.789 96.772 -308.905
633.06 107.191 -365.915
506.97 -80.1527 -246.89
556.419 -61.1659 -271.651
579.065 22.9816 -258.935
600.018 116.006 -386.162
631.368 132.061 -353.983
566.22 10.5708 -286.182
504.614 -81.0144 -234.18
470.701 -75.9084 -222.62
491.642 -80.7141 -273.303
619.468 129.626 -326.53
611.329 138.638 -348.503
622.305 106.545 -300.405
698.591 226.981 -397.99
481.901 -97.448 -270.671
608.135 123.527 -304.289
614.921 94.0527 -328.774
571.859 19.8397 -274.802
632.492 118.744 -379.242
495.248 -69.5764 -231.493
592.625 -2.15887 -286.025
636.058 112.131 -368.725
671.328 231.216 -415.066
601.582 105.741 -314.065
574.911 9.01159 -263.926
728.582 274.118 -350.753
580.844 -4.04197 -250.485
462.658 -67.7616 -263.099
601.022 144.663 -357.803
621.596 93.9181 -326.474
510.912 -80.5081 -248.426
595.192 107.776 -341.123
604.327 99.7854 -315.371
632.797 115.991 -333.292
701.614 238.224 -410.234
520.651 -78.9809 -253.77
634.752 111.041 -331.646
563.452 -10.283 -282.912
668.267 199.739 -401.737
465.956 -74.5157 -266.004
709.518 276.295 -341.812
580.739 -17.6559 -295.767
735.569 260.375 -343.157
537.19 -92.6543 -263.181
614.57 90.7522 -349.574
477.652 -72.8372 -236.214
601.309 88.0248 -338.712
630.723 98.2032 -310.704
610.947 130.023 -393.197
116.421 -1.27796 -293.896
593.596 20.2956 -274.108
628.92 120.624 -385.943
677.501 201.557 -421.404
618.147 131.438 -394.756
490.517 -104.097 -236.035
499.308 -66.0714 -248.135
732.523 256.62 -340.882
593.276 122.375 -379.171
595.265 144.56 -370.445
527.712 -72.4239 -267.465
590.978 126.963 -356.725
607.737 99.7773 -310.503
484.558 -75.7751 -225.715
476.776 -68.9654 -229.134
623.82 96.5802 -344.286
593.49 131.29 -377.642
563.37 0.208319 -276.57
563.496 3.22832 -266.507
598.542 11.7278 -277.27
669.175 222.121 -405.756
623.227 95.0569 -339.376
590.015 15.1489 -266.532
578.124 20.8659 -279.705
160.608 46.8215 -177.207
119.17 19.707 -307.481
626.226 124.604 -332.599
485.568 -102.611 -265.048
602.066 119.532 -315.445
560.871 -7.8046 -285.7
627.433 120.594 -347.021
457.695 -79.0961 -259.775
629.313 99.934 -331.043
481.22 -104.445 -264.445
595.813 111.019 -345.192
699.048 241.715 -410.374
581.693 -11.68 -308.529
635.952 118.658 -374.368
619.012 91.2044 -346.177
597.789 12.1169 -278.268
108.313 23.0421 -304.819
498.887 -85.2926 -264.52
480.415 -71.7049 -239.058
681.375 225.83 -423.083
577.623 -2.64935 -250.115
178.234 37.0699 -191.276
117.651 -0.0110102 -294.864
153.818 55.5242 -189.985
559.468 -6.73411 -287.853
117.419 -0.329227 -300.375
668.446 221.047 -422.898
632.544 135.758 -357.395
592.628 -10.8589 -263.632
517.726 -100.445 -259.523
663.168 216.087 -407.42
672.628 221.081 -403.148
470.426 -98.5464 -265.803
601.225 140.038 -389.176
591.37 117.008 -375.897
545.196 -86.1289 -278.343
540.336 -78.7424 -258.425
703.934 267.343 -336.544
580.457 20.4685 -282.84
701.376 227.872 -401.168
475.028 -104.524 -255.786
566.268 9.61889 -296.352
462.522 -95.6008 -262.205
611.721 130.004 -317.448
503.435 -77.0181 -253.807
588.896 -0.113453 -253.449
632.288 123.989 -325.879
494.058 -101.392 -250.582
610.822 88.8217 -340.513
625.956 123.468 -335.098
628.442 122.199 -334.099
594.454 107.24 -343.335
682.171 231.649 -396.96
469.434 -94.1518 -266.265
161.106 33.4214 -187.448
172.877 56.5669 -189.565
734.862 251.626 -342.689
531.599 -88.1535 -252.789
159.739 57.9419 -191.493
531.525 -87.6929 -252.667
597.306 14.6569 -276.601
622.855 128.562 -308.373
605.373 123.974 -311.079
572.523 14.2156 -286.091
598.482 9.74358 -278.884
535.002 -94.7453 -267.799
601.152 139.799 -389.096
497.687 -64.0607 -253.624
623.616 119.511 -343.828
